# 3D point list with one line of data per point:
#   POINT3D_ID, X, Y, Z, R, G, B, ERROR, TRACK[] as (IMAGE_ID, POINT2D_IDX)
# Number of points: 452, mean track length: 2.8863715987387599
5779 0.84380579526087607 2.9092284063241109 18.69177708008392 91 89 100 0.579641689146283 5 8424 4 8286
5784 7.0306598807893437 1.9467835809398457 13.219677391229572 50 47 65 0.45278155634755651 3 8185 4 8338 6 8249
5786 5.8014433104458911 1.5077262990384341 14.432671028532127 110 113 123 0.96162466950523573 3 8393 4 8370 6 8402
5788 -12.618194590026944 4.5132661245931169 32.402654745612431 121 134 150 2.8091372868514632 5 2390 4 8380
5790 -12.51318864001229 4.2369554502578657 32.244413000400073 145 154 153 1.4310055087115643 5 4100 4 8413
5796 0.0642159566181114 2.2513188590638213 19.321194632803085 83 72 88 0.94947988739535827 5 8635 4 8478
5800 0.86792264471732294 2.0813046460267306 18.659376153235307 88 80 91 0.30701588446773875 5 8650 4 8497
5807 -2.533264010490246 2.1204411631437998 21.271986917766039 39 36 43 0.043167569597465087 5 5406 4 8547
5870 8.6227905001157978 0.31158386890209411 14.454809941948715 112 113 117 1.1452784854736782 5 9079 4 9042 6 8849
5877 3.3833329879635774 4.5483152926937525 15.995402167174483 22 27 46 0.38157064295704707 3 7395 4 9109
5881 11.987809681364697 -0.042569517541705397 18.693677017737723 36 39 58 2.1108648462700974 5 9144 4 9130 6 5827
5944 10.676658090655673 -1.8004560203741713 17.354380994399083 32 30 54 1.865249570731607 5 9453 4 9514 6 6234
5996 0.93837801056062276 -4.8465423574169524 27.242622673242003 15 21 53 0.94860733085828497 5 6007 4 9884
6049 5.7469238399035207 -6.1439965076378114 23.666474370939454 5 27 61 1.2754129342391693 5 6188 4 10283 6 10165
6050 -7.7395947129411464 -15.475272652050341 56.169999051788359 75 73 83 0.96385246272691649 3 9589 4 10292 6 10089 2 5817
6051 -2.3485209888721457 -14.279449813447025 51.202360675233074 78 77 91 0.6027902318808066 3 9588 4 10308
6052 5.5892282479131685 -6.7378031932160116 25.121117181944506 111 129 163 0.13619827246007696 5 10014 4 10310
6053 -1.7869453113363174 -14.220767636012178 50.853039231393453 70 69 83 0.60056350603129194 3 9590 4 10314
6054 5.7852356553684725 -6.5084217910331796 24.14701613335577 0 1 24 1.4152769898418374 5 10017 4 10315 6 10205
6055 9.672487608754949 -4.3565106948387093 16.736315874265028 68 76 87 1.5205786086657225 5 10002 6 6634
6056 2.7060449877005923 -13.139348188377653 46.315337626184537 93 93 105 0.033158101988963407 1 9527 4 10331
6057 -4.9683979247050134 -15.610716820858269 53.674041713654923 75 74 88 1.0779770255135674 1 9572 5 10046 4 10346 6 10166 2 9064
6058 4.4292274064551522 -12.914474912730407 44.793439170092263 85 84 102 0.90447361043365948 3 9600 4 10348 6 10212
6059 5.1918228553945101 -12.527094569213999 43.522472539840486 78 79 97 0.98010633428439498 3 9597 4 10350 6 10221
6060 6.3442968555946395 -6.4983258619374409 23.326593879033016 9 22 45 0.067078169259485107 5 6222 4 10351
6061 6.6676884446717857 -11.960491983640122 41.60755426805207 46 48 68 0.23664589211546888 5 10040 4 10352
6063 9.8344213472481901 -4.6323482633674713 16.984066497956999 72 75 89 0.31228454722243965 5 10031 6 6666
6064 4.4164699274568884 -13.153254528152848 44.631239414174111 29 29 47 1.1802437129549324 3 9606 4 10368 6 10239
6065 7.8429284364378855 -6.0364298414897952 21.225079918814711 3 1 40 1.7898889137484204 5 6232 4 10374 6 10292
6066 7.3480586093514608 -6.357758612678329 22.159648270909081 1 3 36 1.9604089920465668 5 6238 4 10375 6 10287
6067 11.378537099937994 -5.3444533364636113 18.953640697771053 4 9 28 0.81297640226718026 5 10043 6 6677
6068 12.159138950593672 -9.5806206819674529 32.729965907346589 252 254 246 1.0277697407899904 5 10050 6 6653
6069 0.069279645580299379 -21.096138774779412 50.641825883019273 66 65 81 1.2521023360937449 3 6622 4 10379 6 10468
6070 8.0205797397026863 -6.0019477945759379 20.810268172664088 0 3 40 0.5266417807250221 5 10058 4 10385
6071 8.0303242687920839 -6.2019244145128001 21.091822532066818 0 15 55 1.0919548048814196 5 6256 4 10396
6072 -6.704177945483389 -17.511079024479191 55.686778439921 69 68 78 1.4224727454017645 1 6176 5 6548 4 10406
6073 8.3004264512957935 -6.3106113947739919 21.123095798887704 2 20 67 1.4673156178030828 5 10079 4 10413 6 10335
6074 7.3607215984772276 -27.027036502292404 65.592605675592665 29 43 69 3.3899958178683405 3 9429 4 10417
6075 7.1377380539947914 -6.7056355612052592 21.983166620438837 32 33 51 1.3873582427878324 5 10098 4 10430
6076 8.2684869739762163 -6.3645275373373709 20.949205060582653 5 1 34 1.084670186057844 5 10094 4 10435
6077 11.133883914181682 -7.6515156339081249 19.852596194481851 108 160 235 0.33969907829251555 5 10225 6 10493
6078 9.4210742015068334 -5.6725639561795349 18.611495662168327 0 0 30 2.0875786701459185 5 6297 4 10440
6079 8.8772797983747918 -6.1244955806884329 19.945039249890421 1 2 32 1.3823511232684333 5 6302 4 10441
6080 6.6708689846461073 -7.0849609731893741 22.648080278491058 36 38 59 1.1908856252653401 5 10112 4 10446
6081 9.3576906963593149 -5.9197170133101364 19.046407944065827 1 1 27 1.8604065533768046 5 6319 4 10461
6082 -5.1166974373732463 -22.870801236848948 56.175172809095564 67 61 73 0.17741485766674553 3 9371 4 10463
6083 10.248291259944528 -5.5109954983701641 17.733432295834238 15 14 33 0.22339055266158847 5 6317 6 10398
6084 -5.0375237577655509 -18.251622112838511 54.318192248793729 75 74 88 1.0719812262033048 1 6189 5 10150 4 10472 6 10316
6085 -3.384108797427499 -18.017641378428365 53.481228840557925 78 77 91 1.5942203968988375 1 797 4 10475 2 640
6086 12.442736873349141 -5.5738801478799704 17.830991382778919 80 136 238 2.7964792581439282 5 10115 4 10482
6087 9.3009118076689923 -6.1838963911203457 19.514031825669434 0 1 29 1.8060799739044757 5 6337 4 10483
6088 2.7483657092254505 -15.778404099100662 46.764373132489247 89 88 105 1.1075288202412168 3 9711 4 10490 6 10348
6089 9.2201278877870312 -6.4189112058718649 19.907509705047566 2 1 33 1.7945522638424993 5 6349 4 10497
6090 7.9302993941701745 -7.7359277924300791 23.572721519491566 34 41 57 1.8177689661367911 5 10146 4 10500 6 10386
6091 -1.6448314544813256 -20.838175291363179 51.840951787875007 82 81 95 1.4864474151487717 1 9652 4 10503 2 9119
6092 9.3764271612976202 -6.7079626099431238 20.15393662943789 0 0 30 1.0368598688585027 5 10157 4 10518
6093 9.5398659951206461 -6.5367659098027051 19.634942255425319 0 2 27 2.0784555436896754 5 6374 4 10520
6094 9.3574462086404768 -7.0186312746520532 20.935033351058021 0 3 32 0.11192461920710636 5 10161 6 10415
6096 9.8428724400318561 -6.3554766227717687 19.084075501116956 0 2 28 2.3509834289558542 5 10160 4 10523
6097 10.64643186079797 -6.9894105381488929 18.982760383390435 22 51 88 3.0460960555028178 5 10206 4 10532
6098 10.730672755188955 -6.2593929960994448 18.419959268125286 62 69 84 1.1249831574842677 5 10168 6 10449
6099 10.03444429669759 -7.13383120309825 20.347473100316861 0 1 23 0.062390103977147338 5 10185 6 10451
6101 2.9353032562610721 -18.280298907405029 46.964113161121816 72 74 87 1.5391433736041606 1 6108 5 10217 4 10559 6 10439 2 5892
6102 0.15184441311273469 -18.75138621651401 49.636034311350016 94 93 107 0.60383760402985909 1 6358 4 10561
6103 10.226532546233489 -7.364553029311959 20.411116882585794 0 0 0 0.20214786041301835 1 9577 5 10198
6105 3.5161135744382497 -17.711629849446613 46.134931261637384 52 51 67 0.10471170070785597 1 9622 4 10574
6106 -3.8452176244687402 -21.336703300545896 54.654895760382381 39 37 51 0.3475817779684619 3 9535 4 10577
6108 3.8165194155602342 -21.061157027055604 51.367575732876631 8 13 31 3.4254176665048917 3 126 6 33
6109 -11.580054146998176 4.345865719301818 32.027451531652197 113 132 139 1.9180640323256957 5 50 6 87
6110 2.5475642478279461 4.9656726993846387 14.031365070649539 12 19 38 0.12113050026489017 1 814 4 111
6111 -10.154550392210156 5.5750543036398046 29.421739137978062 97 106 116 0.56116527850524078 1 867 4 128
6112 2.5051752598226211 1.7340901260675639 11.70245901979054 179 184 180 1.572829760308847 1 94 4 199
6113 9.6977518017046442 -7.30462720007574 20.445135999613033 76 137 243 2.7548497182301173 1 263 4 245
6114 1.7587117110283925 0.46119185345283403 18.441637093816059 239 246 239 1.5494527866169261 5 481 4 489 6 357
6115 3.5775063659054429 0.79792436016255974 16.328635123104782 37 36 50 1.3858306990267528 5 811 4 791
6116 13.25241959935803 -0.88849301956134508 20.191403525308807 57 60 75 0.47655072832450251 3 8941 4 839 6 313
6119 8.7510495207889782 2.7500726126432604 14.077442124724685 69 68 82 0.53735630291095948 5 4324 4 1606 6 1629
6120 -13.460042552238454 4.7343527139244292 33.208402123525765 107 120 129 0.0095174136768129726 5 1461 4 1693
6121 15.875783823725161 -5.870437168812825 18.630220186326607 7 14 25 1.8776403529864336 1 3688 4 2135 2 5710
6123 -1.8816966993152224 5.2664834564775838 12.451326854773942 247 248 235 1.5862451844490932 5 3125 4 2395
6124 5.9627277844792381 4.7293739425212227 11.320649895889838 56 71 94 0.91745185568178567 3 6748 4 2396
6127 11.336430008689957 -7.5946288579651586 19.653024899866601 2 23 45 1.9802410557129775 5 1861 6 3165 1 6169 2 5803
6129 0.18367523409845182 -0.27049619555144211 22.857609697096169 0 0 0 2.4300874527480278 3 3864 5 3750
6130 -5.327676788272572 3.6307641926400622 15.579388388959959 56 52 53 0.29402229533537366 5 3180 2 2611
6132 -4.0135841242971351 5.1556209541383735 14.967381980185996 73 77 76 1.2091341355482916 5 4704 4 4930
6133 -4.901145051757223 5.1862409435840213 15.206691661648234 77 77 75 1.5941615096694615 6 7229 2 3755
6134 -4.9616696056206466 4.857072842016577 15.550082444052309 99 100 102 1.7011491487090389 5 4757 4 4981
6136 -5.7044546550399442 4.367016078881087 15.977323635596957 62 62 64 1.9298182687313399 5 4838 4 5056
6137 11.242504512362823 0.910026236501013 17.260227318122105 27 32 52 0.50188507308250441 5 5575 6 5591
6138 0.042153741406870934 0.88433817689088046 19.393604330713593 43 45 63 1.0296065193571975 4 5329 2 2855
6139 0.70061371447729026 2.7918147085674856 18.2566367066567 58 51 67 0.31884480139713517 5 5215 4 5425
6140 8.9266444100192164 -0.2530689766157902 14.803793918709486 0 0 0 0.53766734702319285 3 8869 5 5140
6141 9.1269518203963145 -0.52700725019043859 15.62569955209543 53 49 63 2.4916766008797899 5 5685 4 5898
6142 9.1507348662169985 -0.7179665095738873 15.171261404898905 44 41 62 2.0930934366650007 3 7086 4 5961 6 3541
6143 -0.64755281902289463 -21.414831441032039 51.850527606089621 0 0 0 0.53716178866207298 3 9318 5 10056
6145 10.553848016826667 -6.9967287951572894 19.428422323049908 0 3 17 1.159002465719863 5 6410 6 3180
6147 6.7754371407159351 1.9917097083545503 12.029032030736534 0 0 0 2.1505165564519029 1 7725 5 8338
6148 6.4729082465683545 4.6930007671029967 10.953835113636787 206 207 201 1.196319626854959 5 7054 4 6889
6150 -1.4746015935821293 -17.119492494299287 40.271263987648936 64 63 79 1.7597172713904783 5 1864 4 6976
6151 -2.2703646589688549 5.0487270391828112 12.345031030892308 79 99 126 2.3120292997168201 3 6774 4 7011
6155 -6.0882992959303186 3.8496782829786995 16.281326242454202 101 102 97 1.4201245024380083 5 7933 4 7864
6156 -6.2663162652448028 3.3977925539527312 16.485707552038736 58 57 63 2.7972146318121247 5 5037 4 8010
6157 4.2039742434442795 3.1984281935698453 16.152435090446033 52 78 105 1.4889698277047172 4 8052 1 5064 3 5068
6158 -11.313149279994752 5.8239314189104023 29.583661494212148 78 77 72 3.507665001084364 3 5085 4 8074
6159 -1.8673318051616263 2.2894874660664382 20.867268606395854 66 59 67 1.1275915747795773 4 8499 2 7987 1 8131
6160 -0.86110145154923012 1.5837732166893523 22.001174730028076 54 53 59 3.6514460334554526 5 7826 4 8707
6161 -47.177711757633126 6.6200499687883321 99.599736101243877 45 51 63 1.8714559706337353 1 6326 4 8716
6162 6.3769425459821329 0.70561455978901089 14.203715504625048 98 95 106 1.6648686832531645 1 8365 5 8977 4 8899
6164 9.805216552359818 -7.082073685130414 20.514555565749507 0 0 30 0.25745980152284964 5 10177 6 10443
6165 9.5149592458511787 -24.863922091068957 64.222260033879394 51 54 74 3.1127371690085877 3 9553 4 10573
6166 2.9729610442285508 4.5402359329100763 12.610308326803823 10 18 39 0.1503579921936043 4 9 6 9
6167 3.4152642383182648 1.5346220425507227 16.685301174818271 74 71 86 1.6408936838008372 4 21 6 23
6168 0.67934984468399673 0.76650968582021628 12.43426778556127 145 187 237 3.4623950376941108 4 216 6 24
6169 -1.3019548706731934 -16.34230524305476 50.567883333419147 28 47 85 0.27848979884521463 5 30 6 28
6170 6.6430919609243944 4.5509698560254481 12.107821233042021 83 100 128 1.4260223305148105 4 28 6 36
6171 -1.2899088894182849 2.5703100272995134 20.92130625833633 130 128 139 2.357150894381709 4 38 6 40
6172 -3.2662846367473497 5.4752943152741205 14.724183725720653 17 25 36 1.3543416785603402 4 65 6 48
6173 4.9873199301927373 4.5174280402884319 13.744199761350975 8 26 46 1.1578276219659474 4 53 6 52
6174 4.0955025374838376 3.2371068045064466 15.948377713753073 8 23 54 0.026102004598794276 4 54 6 53
6175 3.0519902635987259 3.1239012525370531 15.792178928818945 14 19 38 0.90416053630198256 4 55 6 54
6176 4.277274742128963 2.8034410651670312 15.752329474612742 133 134 126 0.24712975479615651 4 75 6 82
6177 4.2556486462750094 2.2572421317679554 15.869708909568743 137 152 149 2.9512120566210274 4 79 6 86
6178 0.95051826578593412 1.8435261166869721 18.748950820432263 127 126 131 0.83719506729961846 4 83 6 90
6179 5.3938474697823153 0.062767085685865545 14.911069624104909 1 4 37 0.83566595325550785 4 87 6 95
6180 6.9906282428203639 4.5587931120550484 11.962672373872307 33 46 63 1.1546089899589007 4 170 6 109
6181 0.056275479422912625 5.0807424340252503 13.049101348320717 29 40 58 0.22453312027960487 4 105 6 111
6182 -12.79049157533303 4.7997696604750297 24.369684142873258 84 90 112 3.0283567781943899 3 72 6 125
6183 3.2181859324956221 3.0726466500662384 15.785526870689534 39 37 58 0.39641815033849293 4 166 6 126
6184 -13.034182516244677 4.3123063187584361 24.293012301079955 48 49 67 1.6895587081330006 3 76 6 131
6185 4.5495896670049589 2.5131120293197258 15.605313781984878 2 8 30 0.24967924979368694 4 196 6 134
6187 5.1899095765688905 -17.380063836139698 47.443442619054402 1 20 62 1.9322417317661902 5 211 6 138
6189 -2.8782018307564052 -15.966267922414103 52.738697760719127 66 88 126 0.61117418262140699 4 160 5 146 6 142
6191 15.84337302185738 0.33588908364518427 24.055812964550046 25 33 46 0.69663614639932359 4 221 6 153
6192 3.9227930235826225 0.28679971934715121 16.351879631407893 2 14 49 0.0088655862562978718 4 143 6 155
6193 4.5294707215349623 1.9562810171421401 15.844868888302349 18 26 49 1.4141085594549261 4 205 6 168
6194 -0.16459239106974699 4.9597741509295128 13.325043395136623 54 63 78 1.3804213176844549 4 172 6 187
6195 6.2594792801034149 4.3681361057784853 12.395547673549894 30 50 75 0.34953856208856859 5 162 6 189
6196 9.3751081696563698 2.8523739995571327 14.337586143677916 23 40 66 0.86853106514143397 4 116 6 196
6197 1.77724821702267 2.413911100506509 14.535871117253643 53 51 67 1.0749803374380729 5 763 6 199
6198 2.071564471968566 2.6970316332242161 17.368762397524996 38 50 66 1.4951645333947461 4 197 6 201
6199 9.8620804819883148 1.8512966165148483 15.675172539722885 16 28 50 2.4028741607578867 5 180 6 204
6200 4.4735541476728082 1.6785101591746423 15.433136015601006 76 80 92 1.3846390054607105 4 208 6 205
6201 10.170739779959646 1.721482357231285 16.228289819574076 57 61 72 0.65711969493213163 5 297 6 206
6202 -0.32818464577244177 1.3881682033062668 30.283861040777278 44 70 107 0.30315317495604766 5 141 6 235
6203 9.2496002661858618 -7.0424175151339243 21.084874595700196 33 53 90 1.2263689898460088 1 233 5 205 6 237 2 345
6205 0.017473571707844353 4.7455203862282236 13.149583189124186 32 35 52 0.41440910887675597 5 245 6 246
6206 -3.3580642582465106 5.0494535956503759 12.614298374302294 61 80 110 1.6641649300492283 4 259 6 257
6207 5.0379810667391087 3.8782788376357802 14.664271392265876 104 111 129 0.80344486104009283 5 254 6 268 2 412
6208 4.7831248455400495 3.0022013945963346 15.678080955014689 5 19 56 0.081598792997666092 4 431 6 282
6210 1.6034560492957153 2.4992173212126789 18.07968708562127 39 44 66 2.2206584045964344 4 200 5 178 6 295
6211 -2.7656053865036414 2.5465458669245598 21.562874137011342 61 59 73 1.1455748440228801 5 181 6 299
6212 4.1142907321431474 1.8366411618345224 16.227724522633437 61 65 77 0.35925411380505368 4 331 6 302
6213 9.5152224986456222 1.7365568703667154 15.118290127547873 26 38 60 2.0288880517233925 4 462 5 450 6 304
6214 8.2838002327081224 -2.0119635808727736 15.153832630626052 2 3 32 0.29326689769140851 4 570 6 308
6215 2.7307775264070333 1.6318843822771287 17.118600317873909 68 64 82 0.11221311565393344 5 300 6 310
6216 2.8815911396552853 0.24177748662769788 17.529225597734325 233 243 236 0.97055786988072368 4 494 6 330
6217 6.1667472162151995 -0.37013213786535032 14.319028280813029 200 214 214 1.8481402567224234 4 360 5 326 6 348
6218 10.055882629876182 -1.2453066019043406 16.609624157567726 12 20 43 1.3737855607396225 4 371 6 359
6219 8.0791240962106006 -1.6921749798876067 14.739517724248914 1 2 32 0.16322116217054145 4 380 6 372
6220 8.5805969427054389 -2.5821294499269354 15.61456428238575 0 5 29 0.27208351990982488 4 590 6 377
6221 13.048890479736439 -3.7489053243463979 17.251983314902134 71 135 233 1.3977651618467042 4 390 6 391
6223 5.036540639059301 4.6921022119079261 13.329663326126298 75 98 132 1.7548193323079806 4 421 6 426
6224 2.9165006535834754 5.1707347275561508 15.057805899490745 9 15 41 1.5995838671223925 4 617 6 429
6225 1.2702668775635135 2.6499422442318248 13.327013038273298 19 26 45 0.52069785311715966 4 428 6 440
6226 -2.6721620695939352 3.6687092209395882 21.165257802941149 50 51 72 1.7894989162055981 4 304 6 446
6227 9.2951032702445815 2.4186861854837116 13.596870803037705 25 38 54 0.2795816036535192 4 4324 6 447
6229 3.9679693247648093 2.6230219092706109 16.086069208867187 9 19 44 0.22730799477072353 4 436 6 453
6230 10.125650030254603 2.6137996003083375 16.038554193608032 71 81 90 2.4581092788370884 5 5177 6 454
6231 -7.1870706837305409 3.3672647350819238 28.300068358084886 26 34 53 1.00173880094686 4 466 6 468
6232 -2.4611287309312937 1.9718003061228508 21.110060114079158 28 27 45 1.3539925213852682 3 581 6 474
6233 9.7113668936898385 1.4115108044004849 15.607330984840138 31 34 51 0.2999317258305082 4 776 6 478
6234 -0.95478844894625681 2.906941118534216 19.974359200698316 32 40 63 1.5888457455449094 5 771 6 481
6235 3.650502412583815 0.11452435757933732 16.431960069086685 225 242 234 1.2293593178528908 4 498 6 510
6236 8.4799689559406382 -1.9041347436529112 14.918162468610902 43 46 63 1.2062517466795128 4 1966 6 512
6238 8.0193333334607093 -1.9480751879459635 15.218750475564178 0 4 30 0.40593256746871087 4 566 6 570
6239 7.2885181598417059 4.6317389365690742 12.267678515426837 3 23 48 2.1755829533822149 4 689 6 572
6241 8.1623470794629007 -2.2194336266648147 15.390988840597425 0 5 31 0.15493041494917942 4 574 6 578
6242 -3.5366974970881766 -16.63894829092197 52.874948820522462 29 28 55 0.60727985973774201 4 503 5 1047 6 580
6243 5.1665047320506323 -24.98357678564313 60.245583806710798 93 141 226 2.2879047420860998 5 5041 6 588
6244 9.7228260127270794 -4.6764429953732893 17.524665321009589 0 4 33 3.2220437209949351 4 644 6 595
6245 8.3284727614630043 -2.5182517232510806 15.684304383065049 0 1 30 0.020076384778911362 4 581 6 596
6246 9.6533342732081593 -4.0296399798059275 16.864379205440621 42 48 64 1.3600597631402525 4 632 6 605
6247 8.8817711373471475 -3.1555655678495382 16.078112433693658 0 3 30 0.70372414694333385 4 604 6 620
6248 -3.2584981775644257 5.0169737917580948 12.336263971446947 250 248 239 0.88413244105015809 4 410 6 629
6249 -1.6032538137803565 -28.895900392606446 54.144377090329336 49 59 71 1.161048953408665 3 710 6 637
6250 -0.85195545874992462 4.3730797325140207 10.5891786634447 229 225 227 0.84161473355353911 4 674 6 639
6251 -2.3723601128797864 5.101618303413745 12.26029856119224 211 207 205 1.1658176732501486 5 4587 6 640
6253 5.3456704031661424 5.1019824368433779 13.336227798861829 1 15 45 1.6270204883613548 5 399 6 646
6255 0.10999034948412081 4.8758181660057689 13.12969879290308 46 58 74 1.4430635009479156 4 696 5 728 6 656
6256 8.6123780814010082 4.7720509669641107 13.428022580700281 21 44 62 0.67014540209563522 5 1161 6 660
6257 1.3299272516053378 4.6813047416562572 12.971384014887418 11 19 40 0.093278487667161708 3 663 6 661
6258 1.2379920794481019 4.670888573237443 13.215023259874648 15 22 40 1.4648703809060764 4 2297 6 667
6259 6.8509540272032909 4.4824117638058931 12.907260654632365 10 28 52 1.205559460884583 4 709 6 669
6260 6.7232749782884982 4.5130818398882413 13.027544729810819 16 33 51 0.89912563661461986 4 710 6 671
6261 5.3553716588151996 4.5241544792178017 13.025498385648259 54 72 96 2.385319166789432 4 1149 6 672
6262 2.9189008668306022 5.3195896664131563 15.086769461698175 1 6 32 1.3192039386997383 4 708 6 673
6263 6.4487486777352609 4.5066634351500374 13.09441090515462 15 31 54 1.7712675195013055 4 1080 6 677
6264 4.080459599385887 5.1865470342793891 15.085651248729331 3 13 38 0.16103179581619878 4 715 6 683
6265 8.0781106098978164 3.9255147701759148 12.91324969836916 42 48 64 0.92680100675822452 4 1326 6 691
6266 0.14625210637385389 3.2704896591416901 13.478290778530807 44 45 63 0.078374643217904438 5 751 6 701
6267 10.514893506649141 3.2230198717718199 16.465694699164029 10 31 51 0.32756748985961842 4 739 6 718
6268 2.7614561657724948 2.987418275396406 15.653961377112797 29 36 62 0.94257235786548865 4 1620 6 719
6269 7.7693477015271952 2.0883670185522623 13.067809420999591 29 37 56 0.16453139742891909 4 1665 6 730
6270 -2.6728549652357603 2.6591789545382545 21.393844534030212 65 62 79 1.2313842161984101 4 763 6 745
6271 4.212242531384959 2.0462083507780271 15.762926027439409 133 133 125 0.17002722997649827 4 760 6 748
6272 10.627998442951949 2.2147915274526269 16.528258866365597 24 35 53 0.57133481172530243 4 759 6 751
6273 12.055302922645541 2.1937191103263918 18.17450393059044 66 73 91 1.1399744916809516 4 766 6 754
6274 3.0190101219112795 0.056495629100916545 17.757333609278376 14 33 74 1.5110622931970197 4 808 5 832 6 788
6275 7.7507525506390165 -0.14026538523103743 13.498183949613784 42 46 58 0.34170154760862292 5 1568 6 799
6276 4.9089300184369868 -0.57036693199869704 16.534046638998039 3 8 46 0.37123162493478867 5 520 6 806
6277 5.0583963687061031 -0.8543238272692435 16.776185553706281 3 12 47 0.80204843088443867 4 846 6 817
6278 9.9968898719364834 -0.68149532941792623 16.383107117305631 51 54 66 0.42752443028930198 4 1867 6 818
6279 7.2654337320666951 -0.91457553562226246 14.561208462648969 3 26 68 0.87539718979002235 4 860 6 829
6280 5.6451797462100011 -1.2158239403468143 16.675174427954754 1 10 49 0.60078139321989665 4 868 6 831
6281 7.4574767786186067 -0.94225692559795537 14.246836241900201 1 18 64 0.81910693222995101 4 460 6 833
6282 6.0812271075846169 -1.2940613793183917 16.290487936759984 0 3 37 0.31390434430840297 4 873 6 837
6283 5.7985658072237403 -1.5061506922593861 16.994444859234402 0 4 39 0.12454827143385033 4 882 6 841
6284 6.0205238671058483 -1.5404738271187115 16.772110291370304 1 2 41 0.49826360419958426 4 883 6 843
6285 7.8454941967226963 -1.2815919567655722 14.399854316284943 0 14 57 0.053520779996186804 4 884 6 848
6286 6.0987471106082713 -2.07842750472639 17.50899779180665 1 4 45 0.20580747680930606 4 911 6 859
6287 -6.5146499129852664 -11.017237555925181 54.927899945399474 83 127 191 1.075217345558632 4 956 5 971 6 878
6288 9.3505862176955628 -2.9686616458761406 16.186088838422801 58 62 74 0.67515679646949212 4 2022 6 890
6289 7.7708613054086904 -3.6882085315710449 18.051549138210707 1 3 38 0.66992970688757292 4 973 6 896
6290 7.4738463087817903 -3.8921139143505186 18.672632288533926 2 9 46 0.64421206791268981 4 975 6 897
6293 3.3718561114451289 -5.0522165050345933 20.355464243697497 54 59 81 1.1932738208252944 3 6246 6 902
6294 7.7260771347785608 -4.7671828088543053 19.71827314104624 0 6 39 1.0001314760961939 4 995 6 903
6295 -3.2597296608663098 -15.318874331454147 52.820859400855291 68 105 150 0.8215959613947218 4 1017 5 1036 6 907
6296 14.004502944357242 -4.3907925251152804 18.057379893791502 69 135 234 1.0241269244545612 4 634 6 920
6297 -2.5535201521090736 -17.112199139830171 52.137872007221823 88 119 176 0.76532387414704672 4 1039 5 1051 6 926
6298 10.821005174384386 -6.4950528776814522 18.533026161217133 55 68 84 0.25409022767879863 5 1046 6 928
6299 9.233535819173845 -5.3234227180290308 18.85388485980269 4 6 31 1.5638100440252167 4 1026 6 929
6300 9.5316825518675081 -5.128706480260572 18.263166939904465 9 13 42 1.6207007438190508 4 1024 6 930
6302 10.104811121717884 -5.6342988066471982 18.508470538775519 17 27 47 2.1134116062574382 4 1037 6 938
6303 10.316576481385319 -5.830382510266281 18.439030445518544 6 13 42 2.7360176430709711 4 1043 6 943
6304 10.511686169515487 -5.9276502301652219 18.078240190443463 44 60 81 0.67387975885193563 5 1845 6 950
6307 0.90133006588027575 2.3856222894985351 18.605226472533865 44 35 46 0.19270970516566913 4 1711 6 963
6308 1.2084717121324877 3.7188708618144291 13.133543751888718 152 163 183 2.1813479683936361 1 3001 4 725 6 965 2 6878
6309 8.5288064648736643 -7.2089349128812339 22.538687190851217 25 37 75 0.16360908070125152 3 3448 6 969
6310 7.5458952321792632 4.8660110533490695 12.219258466259594 18 38 59 1.4316372957468475 4 682 6 979
6311 6.6597943565223492 1.1608291107011941 13.775855068764457 134 156 195 1.9169520152099466 4 778 6 981 2 1240
6312 -11.709349193302502 3.9418302381512009 25.498808815167084 86 93 111 2.9418101305588777 4 4253 6 984
6313 8.2745206137609433 3.4163358667269472 13.370412669059805 16 30 56 0.55560859211079583 4 1468 6 992
6314 7.6670045882478037 4.1638547770737429 12.446504230934353 23 32 49 1.2083877970994807 4 1203 6 997
6315 -0.32545669796471016 5.0140496214425623 13.193892993615497 62 71 86 3.3336738937495216 4 2454 6 999
6316 7.406863117376175 4.5834995504011005 12.40012014737208 10 25 44 0.057440796091879784 5 1144 6 1000
6317 1.28735668191999 4.8794569582387695 12.960279009407914 14 30 53 1.0910424123391935 4 2461 6 1001
6319 5.5300353186066369 4.9925709464934016 13.664803573116368 21 37 53 1.660357569231 4 1125 6 1009
6320 1.4559747832527261 4.7222355900958348 13.209947324169804 44 60 83 0.59519542827573901 4 1138 6 1021
6321 6.5761573544957654 4.5483117350168909 13.168878967696457 20 37 55 1.4906954332299673 4 1159 5 1179 6 1038
6322 0.68147375548418943 4.5175682175402203 12.961289316164379 36 35 51 1.5516661431146144 4 1147 5 1170 6 1039
6323 0.046567505436308561 4.5982236148659235 13.235506933819002 40 38 53 0.61563891148944572 4 1156 6 1047
6324 -0.27094690630955282 4.629807183544874 13.362515016742146 41 43 58 1.3932995381399973 5 1180 6 1051
6325 7.9246011421884006 4.2540925042483559 12.571649332520312 32 45 61 0.7795469660266825 5 1197 6 1057
6326 0.45350852745052184 4.4329112710504326 13.087459693332127 43 42 60 1.2442315458308026 4 1189 5 1200 6 1077
6327 0.30163687443219611 4.4631838163006803 13.178833238672574 48 45 64 0.48859827945741058 4 1192 6 1081
6328 7.2168962104811305 4.2095850626006799 12.647717372034423 30 41 59 1.1327417534301634 4 1213 6 1084
6329 0.54738745590736015 4.9785785180251283 12.941696138346325 29 36 52 1.38928585131523 1 1453 6 1085
6330 -0.048342971178640212 4.501080830216817 13.312850683689163 42 39 56 0.64891457336509029 4 1194 6 1086
6331 -0.12679931260995381 4.4722063300979089 13.241641355149435 50 49 65 0.90380415132414926 4 1195 5 1888 6 1087
6332 1.9232535579701173 4.7438403446146893 14.175257541344306 10 17 43 0.095392440109793059 5 2222 6 1101
6333 2.117787369799061 4.8036134341175076 14.438593630607365 12 24 46 0.87640779815638592 4 2180 6 1111
6334 0.54617227525852452 4.3161874920249623 13.071498922592996 38 34 51 0.62452539773711213 5 1224 6 1115
6335 0.40956481024980979 4.3333410321983852 13.114674914036836 55 53 67 0.56662272510074196 4 1230 6 1116
6336 9.1290857525068212 4.5730301721281856 14.071579248189581 35 48 65 0.054944267830517139 5 2283 6 1131
6337 1.2606558682578806 4.3900167620224568 13.4476833588662 19 21 41 0.54663156101070354 4 2559 6 1140
6338 4.388569613304619 4.8789018722078108 15.034547010353016 14 32 54 0.51120972674353571 4 1255 6 1149
6339 6.5008950125729639 4.2624098480010879 13.306704586198187 26 41 62 1.0881592898652077 5 2322 6 1153 2 4037
6340 0.650828789984773 4.1851250353724074 12.992349738996696 40 39 57 0.85308917938927153 4 1258 5 1237 6 1155
6341 0.13247294126834522 4.2643290946710231 13.272488543341314 37 34 53 0.9175896968543934 5 1240 6 1160
6342 7.7776992589353373 3.9757650754905089 12.582819702177549 33 42 59 1.5095558432931218 4 1282 6 1165
6343 1.8068946921149782 4.5096256517960382 14.084582661535565 22 23 44 0.52677597568681522 4 1273 5 2335 6 1171
6344 -0.96979301977534227 4.3884122099928762 13.684739243502454 47 45 59 0.39552755260674932 4 1271 6 1174
6345 2.044211946233212 4.5644062317830079 14.392371642676942 25 27 50 0.071085140946210143 5 2348 6 1186
6346 7.6086883724676353 3.8779205478823893 12.51687672451426 37 44 62 1.188068282755669 4 1306 6 1196
6347 0.37644109085868782 4.1267394140731382 13.171806323060695 44 42 63 0.49251658101332235 5 1256 6 1199
6348 0.093547199445921533 4.1572067098516783 13.272976177790945 46 45 59 0.98998717034909589 5 1258 6 1201
6349 1.7547635191147566 4.3672941187499106 13.951758127412583 33 35 56 0.24800453628366675 4 1302 6 1209
6350 4.8970845814294544 4.5974874933869243 14.72853896506358 39 47 68 0.050335899495185916 5 2398 6 1215
6351 6.0323719826283639 4.259475472797595 13.734438148574466 22 30 51 0.43618367051703633 5 2404 6 1219
6352 1.2809177694863281 4.0616616899049021 13.117929807699772 26 32 46 1.7338004545178622 3 2487 5 1268 6 1225
6353 7.0406051202814144 3.9285794103638336 12.782858259585534 36 38 61 0.9618413478831449 4 1319 6 1231
6354 6.6088190596355725 4.031842897436424 13.250805877575477 23 31 50 0.93151975624375738 1 2895 6 1237
6355 0.018846275497509453 4.0492711736587639 13.288319758251458 49 47 58 0.89201047389507782 5 2468 6 1244
6356 7.6781592235690823 3.8150586262820965 12.670576543270931 52 56 68 1.6397287168537518 4 1340 6 1248
6357 5.9607276721237881 4.1591660233252696 13.781568518888449 35 41 63 0.50613597929093512 4 1341 6 1257
6358 0.71893786988691877 3.8867981386633383 13.042653295329764 55 54 60 1.091341449666996 4 1353 6 1272 2 3071
6359 6.1577867680480418 4.0290264839513705 13.665934717450888 38 40 61 0.60882369072661691 4 1361 6 1284 2 4231
6361 8.2759839193887643 3.7941657296471965 13.219266767553504 53 56 75 0.72458649835194322 4 2871 6 1319
6362 6.2215612896588137 3.8925753904206011 13.552872178928892 28 34 56 0.61154181443163358 4 1384 6 1324
6363 8.3845364983902986 3.7931529205180903 13.271531807088056 44 50 64 0.89536848314571726 4 1387 6 1325
6364 7.9713875064053701 3.6014756132076235 12.834259284713379 31 32 52 0.62315347038966107 4 1396 6 1339
6365 0.54394073849810209 3.7105625269072733 13.192607718685608 49 47 60 0.42077427425403896 4 1399 5 1305 6 1342
6366 -1.108327311651663 3.9068165585502066 13.882693451424867 46 43 52 0.19599589523848687 4 1402 6 1348
6367 5.7525364376732879 3.8858532249318021 13.977787845269008 24 32 55 0.41830647601964754 4 1409 6 1358
6368 7.1727145859135568 3.5205530071509981 12.804691563398961 33 36 55 0.404346392831333 4 1414 6 1363
6369 9.9170700745807494 3.8784351944546502 14.066884587722555 28 53 68 0.58398710886614924 4 2932 6 1366
6370 8.5051986150062024 3.6840622159583707 13.636224292388906 31 36 55 0.59030364083688436 4 1428 6 1383
6371 1.4048748497398287 3.6924375782971128 13.686655769002233 23 27 39 0.56436196158026497 4 1431 5 1320 6 1385
6372 9.7144463754186177 3.6571611415495449 13.897606982601207 16 46 70 1.2335048190533484 4 3127 6 1406
6373 7.3013091960503305 3.2824525811868428 12.687715517940639 56 50 64 0.51519701291910569 4 1453 6 1410
6374 0.29049776216628675 3.447057552554234 13.360324009425614 42 39 56 0.4242055900400884 5 1328 6 1414
6375 0.18663630375573809 3.4406535715290234 13.336833719694692 38 35 52 0.49148856611328551 5 2960 6 1415
6376 8.07366729454926 3.3753260494911519 13.163443092054827 42 42 60 0.33354045730783377 4 1464 5 1912 6 1430
6377 8.4555244699604373 3.3852815063593993 13.362482936661722 43 48 67 0.37435020651086476 4 1469 6 1439
6378 7.5731594628875234 3.1740138602949215 12.629101046243113 50 51 64 1.6974057768042727 3 3059 6 1442
6379 -0.25753853721286168 3.396002380180271 13.56798323382837 50 48 62 0.54242303128488922 4 1480 6 1443
6380 8.3270922267494569 3.2914492479131994 13.362622441397702 33 38 57 0.15599050824751418 4 3283 6 1466
6381 0.42343894668342369 3.2443793602322684 13.388883620240431 34 35 55 0.0094441777971894444 1 3223 6 1472
6382 8.8132527195245984 3.4527651922797875 14.094949673214467 28 36 57 0.37938984510390611 4 1491 6 1474
6383 8.4602437086016131 3.1928478990093794 13.40534327260149 25 32 51 0.16096302709126448 4 1514 6 1495
6384 1.8676972988017013 3.3080492453794839 14.414613970617259 35 41 57 0.43247289361680818 5 3188 6 1525
6385 -0.093829499755627391 3.0669925970455445 13.479181377355189 46 44 57 0.48091994878150912 4 1529 6 1526
6386 1.2542031405464771 2.9812201887081695 13.30985311958286 31 38 57 0.26727290415164884 4 2236 6 1533
6387 8.1869605402239145 3.007900414877009 13.434365167872139 40 43 62 0.33990178058085196 4 1540 6 1545
6388 4.6567325961274051 3.3254530954191868 15.051730171325461 42 47 67 0.15947322964223221 5 3238 6 1551
6389 8.9825928567045281 3.1788642958371489 14.325941304902051 40 46 62 0.315186608238338 4 1543 6 1552
6390 1.755703587211199 3.0866278553921185 14.377060723181597 21 28 47 0.8902107349169095 5 1924 6 1568
6391 2.5007343940388083 3.2692677008128563 15.327049146517632 20 25 47 0.15952957712392313 4 4464 6 1574
6392 -3.0307614501916924 3.0780054563171935 14.753513579963887 43 39 52 0.20173688046936947 4 1579 6 1578
6393 8.7802344227751981 2.9815100677802118 13.921076474560286 30 35 57 0.063385018089129233 4 1563 6 1579
6394 1.2320220284460901 2.7936641676854617 13.392999391191372 35 37 49 0.44571862196623141 4 4436 6 1581
6395 -1.0608891056135286 2.8694620937886901 13.996594360597213 44 43 51 0.51783718936720535 4 1585 6 1590
6396 7.617725255091524 2.5708218550182016 12.345824331102142 37 40 57 0.63595434656505878 5 1382 6 1593
6397 2.132918478184421 3.054485643087419 14.789994704463687 26 31 53 0.49665032268214504 4 4427 5 3942 6 1594
6398 -0.6295141644269 2.8174605914425737 13.811814622185063 34 32 42 0.21463793644284224 4 1586 6 1595
6399 7.9404364932011999 2.7242518339604409 13.109720147898738 29 36 56 0.054253715868644137 4 4435 6 1596
6400 5.3599158980935133 2.947113908937629 14.490544184253014 27 30 56 0.19270545373864192 4 1587 6 1603
6401 6.2848319490003135 2.7699297232556157 13.687875591809119 0 0 0 0.90683836029572595 3 4361 4 1592
6402 7.3445259180777818 2.5583925557032625 12.728599954764539 64 63 79 0.4007108406986038 4 1594 5 1992 6 1610
6403 7.6441706434466044 2.5729019842420424 12.829083224277225 34 40 62 0.06459252175145247 4 1597 6 1611
6404 7.7683010037084124 2.59148573843764 12.937132948130225 53 52 66 0.39876298317502712 4 4406 6 1612
6405 8.3312537269877414 2.71312985178638 13.555970217761283 34 36 57 0.0079127318153823165 4 4405 6 1614
6406 8.1227977522536872 2.6862243071855691 13.413893538290134 34 35 57 0.10741344690404654 4 1598 6 1615
6407 5.29294818772519 2.871711912963216 14.618244929607432 40 42 63 0.060357736714759053 4 1604 6 1620
6408 -13.554436877542857 4.6581345101967981 24.58670636944673 93 100 119 1.2196545340356688 6 1627 2 1306
6409 2.4992005200601137 2.183266596025184 11.592741191259957 40 48 69 1.1593799278621053 5 4295 6 1635
6410 7.7007563252213291 2.4801560837802428 12.876941130592886 53 57 69 0.45060520905500823 4 4376 6 1638
6412 -13.603650822509087 4.357628981046278 24.598757980487399 97 105 124 1.23715806100217 6 1659 2 1316
6413 8.9939447868402294 2.6509943162804639 14.371531830894655 38 43 63 0.095653347470603708 4 4344 6 1665
6414 8.6631922803651733 2.5818582036384883 14.012581025335448 35 40 61 0.23341435586950449 4 4343 6 1666
6415 6.9934948507793848 2.3468657613069435 13.226850874220206 55 57 72 0.32989215795352922 5 1422 6 1679
6416 -12.804648957558298 5.0022318934256713 32.451367507073392 55 58 67 1.3180368310055632 5 1448 6 1722
6417 7.3848164041585109 2.0737034388045821 12.987100485631148 40 48 58 0.083741208536335848 4 4270 6 1735
6418 -13.455105157557187 3.5041008722501701 24.013998047754104 72 77 99 2.8301793885990882 3 796 6 1743
6419 8.2242453717571031 1.9584772711327745 13.434433912241786 40 42 63 0.2277592450021223 4 1689 6 1771
6420 3.8216172762263469 2.2418408074780514 16.02602491481025 46 45 61 0.85977696601718556 4 4182 6 1774
6421 3.7993832631753741 2.1635480927479085 16.142629823400348 48 47 63 0.26117744023905176 5 4111 6 1784
6427 5.8162748075142918 1.2500667864031256 14.405345333672425 69 63 71 1.0207996041505241 4 1741 6 1846
6440 3.6719912995746276 -0.095709576791327661 17.236462992141259 1 18 49 0.88721440605049551 4 1815 6 1925
6441 2.9325816304533823 -0.21303017080728409 18.17848723059636 0 7 44 1.2675570748961342 4 1824 6 1929
6455 8.0143818630138082 -6.1546119894819959 21.308942425595163 2 2 33 1.4592717312638301 4 2106 6 2186
6474 0.8071592588675639 -18.242806834857443 48.92447009013577 56 57 75 0.77868982259928854 4 2149 5 1857 6 2227 1 2355
6475 9.9125214438939242 -6.269657598181519 19.407816662147106 0 2 27 0.074456609110335054 5 6348 6 2228
6486 1.3632303949038462 3.892197031822616 13.631266581880302 32 34 48 0.15045379406931633 4 2214 6 2289
6494 2.1439117717390048 3.454953812415829 14.658116242191964 29 32 52 0.66576944578136621 5 3147 6 2321
6495 1.7694127783609621 3.2651516647017873 14.259758278746379 29 34 53 0.891742536277631 5 3193 6 2323
6496 8.5043823048820375 3.0495871829931467 13.685808805589938 34 37 56 0.41908228384963381 4 4536 6 2326
6497 6.6667741151315454 2.9213896585079389 13.408306411452315 39 41 64 1.0980506203481657 4 2320 6 2328 2 6000
6571 3.7987182398475698 4.8742231780581022 15.501170868423758 12 27 48 0.37033804957657501 4 2648 6 2724
6598 2.1902582331145606 4.2857982897561007 14.626425561880279 24 29 49 0.10416409383272898 4 2835 6 2881
6660 12.327717350043695 -3.121724750717501 16.526386895161174 88 148 241 0.86791071254731444 4 10014 6 3302
6661 5.2764294793485895 -4.8116823973956597 22.309899084450638 2 16 51 0.5136277885934506 4 3418 6 3312
6662 -1.135158149797509 3.5868919050488359 13.883939772737097 45 42 49 0.20481642775931247 3 1403 6 3323
6663 9.1677167684844783 -2.69279548034423 15.96173497613465 39 42 59 0.61477022314766372 4 6324 6 3340
6664 -1.4415379791045597 3.6213769155295816 14.004204569482178 57 54 63 0.29579803278486161 4 3177 6 3341
6666 4.4300040460651937 -9.5180639416157291 53.274993900398691 1 9 46 1.0039818506865754 5 3498 6 3374
6667 8.9806771719517116 -2.1564189225240176 15.544658212177946 33 31 53 0.72953491856390196 4 6253 6 3377
6668 -2.9701016651091883 3.8045922508201779 14.670824369324901 43 41 55 0.024317346145975659 4 3165 6 3393
6669 17.396246385006968 -3.0714366908078228 24.80927001434787 101 163 247 0.67566538696755329 4 6195 6 3400
6671 9.9715883902306217 -1.8662406208172564 16.511770160690414 46 48 63 1.9884098382463578 5 4914 6 3414
6672 8.4956466749307946 -1.5017326276451675 14.7065774476937 26 29 47 0.73684052315917814 5 5867 6 3433
6673 5.8033854688764421 -1.9230028226463283 17.638486097214866 6 29 64 1.3751186136588416 4 1933 6 3443
6674 -3.0652428155375788 3.797375307778041 14.658128662885698 52 50 53 0.09967598422164381 4 3166 6 3445
6675 7.9372095178435353 -1.1920239122560636 14.166096667064956 1 4 36 0.17452785580617552 4 6086 6 3462
6676 -3.3973057393779369 3.8370392935422455 14.806844963906256 50 49 57 0.63004522262130347 4 3180 6 3463
6677 9.3215860952411767 -1.2558636458521097 15.717666151403286 37 38 56 0.080873189456080408 4 6067 6 3469
6678 8.6048498848365522 -1.161670440531916 14.683252224909808 33 34 54 1.2678653252072667 3 9046 6 3472
6679 7.7833895620200257 -0.90972917109361195 13.896932574774377 7 24 48 0.14806659737241662 4 3622 6 3501
6680 8.8472764542351978 -0.94070645185818447 15.117945921878986 35 36 55 0.20646807561588315 4 6007 6 3509
6681 8.5094579979119498 -0.80006305377719134 14.70331558737603 32 35 54 0.43489337048149168 4 5984 6 3529
6682 9.3265230785697089 -0.85828273926812315 15.72425701889054 17 20 40 0.63692481063119233 4 5982 6 3530
6683 9.5741050551233844 -0.81242772368788652 16.047339921239065 33 34 54 0.52462937841917678 4 2338 6 3537
6684 8.734379961751257 -0.74631353259325983 14.943494859568107 38 41 60 0.21842291455357404 4 5972 6 3538
6685 8.4687412629154775 -0.69603897885069466 14.622494419166348 33 34 56 0.1409073724009372 4 5962 6 3543
6686 9.8786226929201071 -0.71926212400665901 16.255934906301956 32 35 54 0.15296675968190243 4 5942 6 3550
6687 8.3958178883049079 -0.60820526154613441 14.500830459525181 38 39 57 0.25470858527055606 4 5936 6 3552
6688 9.0460385981297513 -0.58753568771071074 15.315453345780238 31 33 54 0.39893589875979646 4 5919 6 3557
6689 8.2997807148716003 -0.50612307572050264 14.230487937453397 45 43 57 0.35149158055507024 5 5690 6 3565
6690 3.1459028844319739 -1.010646144156206 19.058329679175376 0 6 45 1.1487147352374703 4 1877 6 3567
6691 6.0406828619334467 -0.57492643350771722 15.398563018618329 3 12 40 0.52426954489298283 4 5912 6 3584
6692 7.9581617908087328 -0.3669905650540643 13.789870375942145 36 39 56 0.095798615543396803 4 3696 6 3590
6693 3.3444418857774179 -0.80024391747619039 18.476900890228478 127 154 186 2.3185981954400003 4 3671 6 3593
6694 8.1258864863623437 -0.36134691089654042 14.200287907497472 36 39 56 0.62062865381114185 4 3699 6 3596
6695 6.0225896547762101 -0.44203431315804809 14.542342790467494 0 19 60 0.096061360766880821 3 5758 6 3598
6696 8.6374062743107185 -0.34968462442071485 14.726203064763515 41 38 59 0.27281741593839948 4 5869 6 3599
6697 3.0003807875035071 -0.73406888465505971 18.850052357149046 0 7 44 1.5525897950299292 4 1858 6 3607
6698 7.9216652962256031 -0.27971024195660588 13.834588953258608 34 37 52 0.4260857979865551 4 3710 6 3608
6699 8.0186171088420952 -0.26791604306771388 13.94799744088793 38 41 56 0.22799234215426911 4 3712 6 3612
6700 9.0982926215543305 -0.25916255267838539 15.276578643620629 33 34 54 0.33481886371630099 4 5844 6 3616
6701 7.9467997512159698 -0.18287989238299293 13.776408658558084 38 40 63 2.4984212597497217 5 9185 6 3628
6702 9.0412517284030347 -0.16596292439170721 15.161718196261765 31 32 50 0.37824713003911681 4 5818 6 3632
6703 13.28308934945661 -0.18623144951372519 20.346845449757854 4 14 41 0.71571758838980992 4 5801 6 3637
6704 6.3613188799168405 -0.19512975863925941 14.460295825361198 53 85 124 0.64222724840316825 4 4702 6 3641
6705 2.8682353789649313 -0.45142012738348469 18.533417881656224 0 10 43 1.746094132246351 4 1839 6 3645
6706 9.5081834246198067 -0.074547317874704103 15.736579969929231 26 32 51 0.46239689219160846 4 5793 6 3652
6707 -0.11653708214246351 -0.77846553422030829 28.016738719783302 0 8 47 1.5740442556800733 5 3720 6 3654
6708 8.1435865829465612 -0.041242811185519299 14.067865425392213 36 39 58 0.25579021880250441 4 5788 6 3659
6709 8.3774650661460885 0.0021584994807560204 14.37461984916872 37 40 57 0.44462423959396891 4 3756 6 3668
6710 7.9510447681897229 0.024996826924779718 13.745661897554156 34 37 56 0.766991527005073 5 4366 6 3674
6711 8.497097803716942 0.028985459442921475 14.482592579214106 42 45 60 0.62590394583526365 4 5772 6 3675
6712 9.0148946481667398 0.029831625531117567 15.054471041658275 25 30 49 0.34187926941976776 4 5771 6 3676
6713 9.9812788136121782 0.033866079094633232 16.180156963109312 33 35 56 0.30056632510798925 4 5770 6 3677
6714 9.5576996696156851 0.043699026997834019 15.696399857446604 40 43 62 0.78347414450009056 4 5765 6 3678
6715 4.4323148467339175 3.9667648449474999 15.257755895817651 35 41 67 1.6169256394714857 1 4783 4 3154 6 3686
6716 9.3632638646738329 0.10753507774335511 15.386657294269336 24 31 50 0.44374489722451527 4 3767 6 3692
6717 2.725813287572719 -0.17294585804596951 18.295643771493054 0 16 49 1.226257640177296 4 1821 6 3694
6718 7.8793974344048925 0.11673852950789031 13.596190738899287 38 41 56 0.12620120449254676 4 3771 6 3699
6719 8.0435322246272865 0.13308544554026272 13.996059466639696 40 43 62 1.0877203370357793 4 3775 6 3707
6720 1.3252633516309258 -0.1595108684772257 19.808404083573578 0 8 43 1.6262020218796069 4 3748 6 3711
6721 2.2766925379270737 -0.089064319577584761 18.678903426424153 1 8 44 1.370278702664101 4 1813 6 3715
6722 8.9131848013482813 0.21519138807860985 14.926429250329351 43 46 63 0.81422252103550707 4 5729 6 3726
6723 2.0598359211422066 -0.046485920528761202 18.853214243250381 4 6 44 1.5125967389295836 4 1811 6 3728
6724 7.8543289059051782 0.20315522961203683 13.695133156728605 39 40 58 0.61697673396433894 4 3784 6 3730
6725 9.0266040427065484 0.24153352440954079 14.993838328436343 37 42 61 0.30309508557425929 4 3792 6 3732
6726 8.6294710618796184 0.25116756861954809 14.48564821252206 9 20 48 0.34289290775295062 4 5722 6 3734
6727 9.100870168881567 0.26018660498233331 15.088749865181207 21 26 46 0.33737512770119005 4 5721 6 3735
6728 9.3777780837125082 0.30710353138566859 15.507664872670111 26 31 52 0.5952799088753602 4 3801 6 3746
6729 8.2916426793677207 0.29714818598329862 14.089305776835511 39 40 59 0.031996683189658023 4 2359 6 3752
6730 8.975604001948323 0.33414195125742557 14.979938647454659 31 34 51 0.68557117394785205 4 5701 6 3757
6731 7.8919993430435653 0.31940083975098565 13.599980948650641 36 41 60 0.43608796381040432 4 3809 6 3761
6732 8.0587392807690517 0.33962676850148449 13.947462243922503 31 36 56 0.52933091245838648 4 3810 6 3765
6733 12.069605695261739 0.49608812230356231 18.945707031407007 20 27 46 1.0642172556945191 4 2361 6 3769
6734 7.8880339169677294 0.41439538166781315 13.729770125477522 45 44 58 0.75132833779362973 4 3830 6 3787
6735 1.4537889668636013 0.31325659205387235 19.06600188197104 0 6 48 2.0949940508381744 4 3802 6 3795
6736 3.4122403446438776 0.37517456877271715 16.858764367261859 3 12 43 0.018494242560149726 4 1788 6 3797
6737 9.4431874866858792 0.53781463943552332 15.282464725092581 27 29 50 1.452039381654769 3 8703 5 5636 6 3800
6738 7.6700524326020689 0.48283721996179052 13.26706392757152 52 51 65 2.3280231835218599 5 9023 6 3803
6739 2.6722257781918057 0.3851515488056399 17.481778972120704 4 15 45 0.30413214024918334 3 5689 6 3804
6740 8.9654777245304942 0.5341820221771707 14.897718741335073 30 33 52 1.0248916499340641 4 5657 6 3805
6741 7.0137842901947272 0.48768800183456679 13.502796791732786 82 79 88 0.1610788685780436 5 3852 6 3812
6742 9.2942321409686439 0.60366658681616392 15.23043278552276 37 39 59 0.74951666114022586 4 5642 6 3818
6743 9.4451375843363099 0.62834376858020469 15.510048409887096 34 37 56 0.84182494778557182 4 3862 6 3820
6744 9.5474205613101564 0.6568819050721767 15.547139764543465 33 35 56 0.63222021054711053 4 5628 6 3823
6745 10.451671659278267 0.74206502859966683 16.589184464752666 25 27 49 0.5076974174976252 4 5508 6 3831
6746 9.3460305320583696 0.72341712639105638 15.22543431828778 56 59 77 1.5027435680371131 4 8911 6 3839
6747 10.02768119732638 0.75776166599987493 16.137303417434218 29 31 51 0.67709157848954127 4 5443 6 3840
6748 3.8919657442666917 0.58204639337597552 15.907530133620453 2 31 63 1.0130627665751974 4 3859 6 3842
6749 8.9758390714349616 0.74008670600512394 14.853963186099536 30 32 55 0.69231739102627265 4 5311 6 3852
6750 9.1143804137850335 0.76568011518446577 15.101254813319423 31 33 56 0.82164758814289129 4 3895 6 3855
6751 8.7022435994116876 0.78237245834997526 14.5556509781419 20 27 46 0.58353915551315128 4 3900 6 3863
6752 8.7972596037231163 0.8048809122738223 14.609465773880753 36 39 56 0.4636946843621883 4 5107 6 3869
6753 11.429192465058508 1.0161609269958936 18.108904852826871 31 39 58 2.0501802218176217 4 4959 6 3873
