# 3D point list with one line of data per point:
#   POINT3D_ID, X, Y, Z, R, G, B, ERROR, TRACK[] as (IMAGE_ID, POINT2D_IDX)
# Number of points: 443, mean track length: 2.3175879396984924
4751 -1.0053209898275079 -0.26098414182149859 4.7874203868175602 167 171 174 2.2765124348125552 6 3119 7 3366
11175 10.09299688785771 2.1319144003594488 9.2382694360124678 37 55 84 3.1518675063738035 3 4800 8 4391
4754 2.3893876774687284 -1.1129785506076724 9.4679772041638177 208 210 205 0.87444456918961078 6 4931 7 3388
4757 0.27829793903628819 -1.0196843072205752 9.5569057070098307 197 188 189 0.031300681142788528 9 4180 7 3405
11180 3.245084302125731 2.0652713400176217 9.490701358521882 156 130 119 0.73334861362409853 3 6172 8 4409
4759 0.22139919435402006 -1.0199478264567319 9.5805970420061488 178 177 175 0.10670129289598823 9 4182 7 3408
4762 -1.9407603400085116 -0.88452855036391798 9.5617900037441697 114 114 112 0.16176072258460408 6 3167 7 3424
11186 1.1529527735591047 1.8118797735538603 8.6588796203171725 39 62 100 1.1557724750237999 3 6183 8 4425
4765 2.1737800531792235 -2.5170898088671132 12.004682053925158 241 241 241 1.7865326519685345 4 2128 7 3496
4773 1.4965637568366532 -3.7856432110637286 14.830162872523795 90 108 133 1.2428033331779003 6 5077 7 3560
4776 -0.75849604724001563 -3.7668567760619851 14.825259496445959 105 105 103 1.8788272654269591 6 3230 7 3587
11207 7.1758237814476837 1.5175371268941003 9.5255672453154379 221 158 132 0.41991294003876634 3 9472 8 4522
4786 2.4906573144053952 5.0157064139689549 11.555570425338813 207 203 200 2.6218262805225176 6 4182 7 3659
11209 37.154270203585817 16.372106512366116 98.280480780395635 207 204 189 2.6289720024761554 7 10912 8 4529
4788 -5.8875229191862948 7.4818511952603304 16.409181690876437 121 121 121 0.89612238511320508 6 3856 7 3663
11214 5.4198377586086464 1.383440446482467 9.1136174701842645 127 132 135 1.4377622799556489 3 4401 8 4538
4793 0.05738910043373982 3.0815170583858951 9.8829466288063514 116 118 115 0.084756142988608535 6 4671 7 3705
4795 1.9636728421890093 -1.112123886841339 9.5275697346877735 67 71 81 0.2155854257669825 6 3145 7 3715
4798 2.3685396673370551 -2.6307675806725084 10.190648753295992 135 133 125 0.13102096085395604 11 8329 1 5363
11234 7.6474929373024523 0.89768463959885436 12.84077122990981 85 85 83 0.97079622300800961 4 6405 8 4619
4813 2.1346453932226277 3.7406911838909536 7.8809548072436932 226 216 189 1.013085915746857 6 4021 1 3807
11238 6.6069466149442793 -2.753702420966297 10.061540081651691 208 212 211 1.3112226355656553 3 6645 5 4912 8 4635
4817 2.1368461526068288 3.6927212541191423 7.8834001611271196 223 216 197 0.96142020033451225 6 6198 7 4088
4818 -1.6043341970308387 5.4181079066335185 11.887010341139362 163 163 153 0.19530418234814687 6 6084 7 4113
11240 22.160270648869247 -1.0975871627185125 30.223826454787318 179 182 178 2.0025145125175965 4 6456 8 4640
4819 -5.4171232130395426 7.5762273989118194 16.754058381971177 7 16 10 1.8078397578807075 6 3894 7 4114
4821 1.2533847997342069 3.2290336995327973 7.2717265546183771 148 148 143 0.20581569415208281 6 2761 7 4217
4825 -1.8609457518603931 6.2604411964011586 14.670516018230137 99 114 114 1.575309283775947 9 3331 7 4267
11251 8.9466691444816142 -0.86409379000181097 9.0525393027980936 41 45 59 0.29803067609431222 3 6384 8 4686
4830 -0.79940609343222679 2.2766599172072306 5.3532297393836492 16 26 9 0.33278333046016251 6 6530 7 4339
11254 6.2621001062581936 -1.9954422728202739 24.799288187257581 81 81 91 1.3534922567263061 3 6391 8 4693
4833 0.97722578347486666 1.6346999234921153 3.8320555864099899 249 255 251 0.13466800988916267 6 6644 7 4354
4835 -0.93171974801775037 2.4992398633200636 5.9511911017487158 42 33 26 0.38119246107611837 6 9890 7 4357
11259 3.9159402817537727 -0.77155007072476955 9.200698347909757 57 59 72 1.2478781862462773 3 6400 8 4706
4838 -5.926760766686983 7.1639149241988775 17.51733066127542 27 35 39 0.68093695554930012 6 9628 7 4385
11267 4.7313730394936231 -1.1088534031869097 9.3553805194668946 22 17 45 1.1168411783120129 7 7482 8 4735 5 4873
4846 1.3252030381446274 1.5814467686356224 3.8798670302750802 253 194 212 0.21694557937344625 6 6708 7 4439
4849 4.3201096123712492 3.8285091509494849 9.7103109782354693 100 116 106 0.11453330820587225 9 8520 5 8591
4858 0.12713169722376957 3.6089766478759215 9.6026890288972311 3 4 4 0.59251652064056692 6 1701 10 6060 7 4533
4869 6.8502375280487788 3.0098964099923973 8.9774199626753663 3 8 12 0.35223241052812171 10 6144 7 4602
11294 3.5130631896234825 -3.6179506938412613 11.712932916450479 21 19 23 0.29596876471615674 4 9816 8 4855
4873 0.62787519654588486 3.7339937598509869 11.124100369942118 59 72 78 0.93875888693597265 10 6181 7 4627
11295 0.20551310378878107 -4.0175060805342024 10.700542449150852 4 3 21 2.4185646723878782 3 6797 8 4858
4874 6.2523041692961803 2.5875781568049483 8.2810233946729355 68 79 71 2.7424784376768874 6 10509 7 4655
4878 4.0649463097713969 3.0751123801136089 10.075583074615935 20 15 14 1.985628774542187 6 6306 9 9068 7 4679 4 876 10 9402
11300 2.4276631672384097 -3.8559910019353332 10.13477953611601 0 0 0 1.8934762223413442 3 6789 5 7010
4879 1.1020227626590724 2.6947981187462622 8.8178983127965758 20 29 30 0.58269343829823494 4 4056 7 4683
11301 -0.92758089169132663 -4.1983585215678607 11.736927675244054 144 144 142 1.7827990650438956 3 6787 8 4867
4880 -1.1163154980370056 3.396007571124398 10.998705166133599 10 15 21 0.30883033673534566 6 6924 7 4684
11304 6.2711594976501219 -4.1009365033055065 10.480766260964398 12 9 26 1.8980156378556474 3 6777 8 4870 2 6815 5 5024
4883 17.57926675393778 6.3218863392699101 23.486696214364702 93 95 94 0.55567401445646225 6 1690 7 4717
4884 -7.2605508692977576 4.8504200458910756 17.209360430190305 164 118 94 0.80856318759409396 10 4247 7 4733
4885 1.2425779753990667 2.3721914155156161 8.958924242476396 23 54 86 0.16594214440953589 6 4718 7 4735
11313 0.52097649661818357 -3.5896414625166928 10.463743152220109 46 54 65 1.2418907234919057 3 7872 8 4894
4892 -4.5336275780060333 3.6170984115713511 14.78563052974293 0 0 0 2.1580710955649209 4 9263 6 4739
4903 -2.3359047907533261 4.7758215315629151 11.904429404530028 31 46 51 0.91202282711762639 6 4311 7 4840
11326 5.5381049486861311 -3.5958164064221663 10.232732532176826 41 47 60 0.74278146544862766 3 6715 4 6842 5 7045 2 6809 1 8481
4905 2.6117385239512254 0.19251832694864943 8.9711396908328567 189 191 190 1.9997132975869949 6 7136 7 4876
11327 5.5842555685134503 -3.6069168174907427 10.266057925607385 49 57 70 1.4680514413890235 3 6712 4 6860 5 7047 1 8480 8 4931
4906 1.0931936610656516 0.28509882590309005 9.0827388632054245 194 195 190 1.6264865064066609 6 7138 7 4879
4918 5.2967158740527145 -0.57826333806556196 13.822071251349897 178 180 179 0.49257996932252235 4 4455 7 4995
4919 -0.28373768935141574 -0.24081452951269502 18.290495937279157 218 223 217 0.7484516288869425 4 1610 7 4997
4924 2.8958245320303506 -1.0177135815597032 24.524982428692336 251 252 249 2.6246209963593339 6 4905 7 5040
4925 4.675457709075749 -0.7704903324854796 10.95548754725759 241 245 244 0.6097019206659835 4 5190 7 5044
11347 -4.6208007835865468 -6.5385479138117173 25.93672209284906 5 4 9 1.6392354811702083 3 6663 8 4977
4926 1.4761347671855971 -0.70616848580769087 11.770382638285477 253 253 254 1.0362786708402334 11 1186 7 5059
4928 1.07884073407152 -0.75174163195008392 13.57559615792349 209 211 208 1.8282153717979548 6 7251 7 5064
11350 0.80748276724088053 -2.4521484377199942 9.8418104919354903 167 167 167 0.72184128175194062 3 7299 8 4982
4929 0.86665372634040794 -1.040157856041291 9.5622767267524988 183 181 184 1.452698192574629 4 4481 6 3375 1 5112 7 5126
4930 -1.4309861464147779 -0.92988787150325547 9.557163399815586 3 0 8 0.60426819275595478 6 4964 7 5136
4932 4.0522645797596253 -1.7224432116411283 10.884672022974986 56 64 67 1.9674142880759582 7 5166 1 5196
4933 4.4709051717244597 -1.9338468752983484 10.644093443604111 45 52 58 1.9974839161827023 7 5181 1 3244 4 4573 2 2755 3 4588 11 8189
4934 3.5888401141882471 -2.0542678996404065 10.944618596537236 200 199 194 2.0007369466549418 6 10687 7 5199
11356 2.5179235380912357 -3.9295084973375731 10.557212911378878 14 10 11 0.41261648298025672 1 8472 8 5015
4935 -0.74896179879079716 -1.4643176935856501 9.7459870688751256 224 226 222 0.36750117517195457 10 3236 7 5201
4936 1.9902989130927164 -1.736372554232626 9.7423147345553431 252 253 247 1.0610869343108904 6 7502 7 5205
11361 5.7812716294941868 -2.3095970452159196 9.7665911610746221 109 106 113 1.0590522684012753 3 6602 5 7129 8 5034
4940 4.4228410848172182 -2.3514460911729524 10.783974214965976 142 146 146 0.76040751836321208 6 10271 7 5230 1 3277 4 3052
11364 5.8193846445602126 -2.2384084786194816 9.7337142072992595 176 182 175 0.65471521084728046 3 3273 8 5042 1 3315
4943 2.7825061422154724 -2.4494811296583432 10.288659037297144 6 0 11 0.09635092818280204 6 7446 7 5295
4947 2.2907057215842093 -2.6410655716238383 10.169768201082354 213 219 217 0.69442790959449785 9 6251 7 5336
11369 5.7777819272077435 -1.8571267362150614 9.5795519767164787 249 249 251 2.3772256792352247 3 10059 8 5075
4948 1.2149026088959498 -2.5278823225380576 10.087938020621694 3 1 3 0.36176661111680986 6 5035 7 5344
4949 1.6432084652669354 -3.6048117353962805 14.661159377308335 125 125 123 1.7109887002254083 6 5051 7 5345
4951 1.9998041900645269 -3.6681980687677003 14.678635112556318 4 1 5 1.7348506989250523 6 5050 7 5352
4952 1.3586082597679228 -2.5774747679245444 10.144033588639477 114 105 112 0.45570154514226202 6 3369 7 5355
11377 4.5432769893187928 -1.2164723655327014 9.9342474487731103 184 186 185 0.83524602506447732 3 7489 8 5169
4956 1.3306977117476924 -2.7771757580717078 9.4679314752773909 75 84 111 2.413113140217642 10 6768 7 5416
4957 3.2986626788139461 -3.6675882540281965 11.371437288274166 4 2 11 1.5372511419334369 6 7316 7 5440 1 5438 4 4706 3 3277
4959 2.4329635202562332 -3.6774626049035697 10.521757093121822 41 40 54 0.81126164933227429 6 5123 7 5493 1 5472
4968 4.4224464830422798 2.743904813180539 9.9151322343367294 115 113 109 0.44649089157802058 6 10634 7 5676
4969 6.3379991765355292 4.0944396614506946 8.1333169325715673 183 173 163 0.30260944383382182 9 2110 7 5741
4973 1.2856305074162051 3.6557776491251226 7.423578732459454 71 72 66 1.9236496955304196 6 8972 7 5784
11395 5.9110995408108602 1.377014553457061 8.3864330409097843 16 32 58 1.8302375578866017 4 4730 8 5394
4974 1.9638397857217142 3.4486792703784577 6.9774346598914248 45 44 42 1.2551062957512202 9 2115 7 5788
4975 4.5375617148344274 3.599752419261542 7.2737244498224412 17 18 20 0.62457173520342102 6 9199 7 5815
4976 1.6488072867802386 3.6760054017133399 7.5804456836498355 35 35 34 1.8158331705783264 6 9105 7 5849
4979 -0.92010066115270683 2.7946050270335356 5.8688978993841134 246 255 123 1.0295107553106559 6 9195 7 5914
4982 4.0685314240835817 11.587625848353808 35.45438602090293 9 14 18 0.65756923828914515 9 8882 7 5949
4983 -0.73015034088002939 2.4744001012945676 5.2002304465371987 250 253 91 2.5985288747296855 6 6172 7 5965
11406 5.2074641995143827 -4.1012808390869679 10.564707115987851 3 2 14 2.0429584453575584 3 6807 4 10377 7 7947 8 5596 6 7579
4985 -1.0297294248096531 2.3925718614778368 11.303787832925659 0 2 6 0.068699858606988934 6 7106 7 5990
4986 2.9806476608830081 4.0089839960032645 8.5810311385508431 62 49 43 0.17954290216052571 9 5086 7 6008
4987 -3.3945331299454655 4.8268586541851262 10.500265642399475 170 166 163 0.96543563414466682 6 8970 7 6014
11414 1.1451497230519079 2.3894888945154102 7.2002845256411714 38 47 52 0.61360466232848876 3 8557 8 5735
4993 6.4044170681815471 3.7693710960685043 8.2043522942888121 223 219 208 0.79541696832066744 6 6354 7 6104
11415 2.5808186222787532 -4.0649623104974468 11.080490260291555 206 204 205 2.7747319440664313 3 6779 8 5746
4994 4.4281845464323197 4.3065589468447429 9.4450612910376623 130 129 125 0.009025361569072134 10 8357 7 6113
11416 9.4333548099793205 3.5202696051916527 10.363170107798267 32 31 29 0.36474072277766412 3 8646 2 8106
4995 -5.3326676749883939 6.43944594541738 17.619072438142883 53 52 50 0.74722853144876189 6 10173 7 6121
4998 -1.6746089684257344 5.2765581553568515 11.933616799551498 100 105 108 1.0739940428663834 6 6207 7 6189
11422 11.782804602554675 4.9221406886577972 15.138133866008905 38 40 39 0.44563915115771185 4 8118 8 5849
5001 -2.9710529972293718 0.71601849148561525 10.015675213345849 145 145 143 0.48685413759521201 9 4071 7 6249
5005 -2.5478100224573703 4.8011245975356474 12.146281710812996 0 4 10 1.2262704399264894 6 9929 7 6364 9 4519 10 9007
5011 0.93521112374908022 1.6142961280494861 3.8352448966634132 248 254 249 0.69925117708254059 6 10116 7 6455
5015 0.90992625457354426 1.5986715784062551 3.8454125700175661 39 43 44 1.0337713710610434 6 10155 7 6483
5019 -0.20596165176053705 2.2345890180728558 5.4468112147368428 233 235 234 1.8872887344662588 9 5530 7 6491
11443 -0.96312655997051078 2.8910342108579141 10.92391234819663 47 42 46 0.21811002708294128 4 3148 8 6047
5022 -2.8436009490648853 1.928760798169161 4.7639232890492336 209 209 203 0.48964605142158713 9 8626 7 6549
11447 7.6443249760959198 -4.0182935297913449 10.140051352636135 16 20 23 2.3417574076019019 3 6685 8 6079
5026 -1.8627779003989557 4.4135830909915494 11.455859099864513 3 11 13 0.46079416592102718 9 8509 7 6600
5028 4.5929435121290441 7.6129091092459911 20.647405157342327 0 0 0 0.79128062951468214 9 8612 10 9076
11450 7.7434615227879693 2.2309842821495534 8.6768614333606653 32 32 34 2.8406286874639557 3 1518 8 6107
5029 -4.2908098789631222 3.4412015160886837 8.8977121019241121 234 233 229 2.498845665326062 11 5716 7 6625
11451 8.7581443438419591 2.5805801526153274 10.010812165631277 19 19 19 2.275534867354625 4 9243 8 6116
5030 1.264598177319628 1.5043113820928879 3.8942014297636627 50 36 41 0.076621979564682072 6 6774 7 6651
5032 -1.4133248087956063 2.4904000862776376 6.6338689146307992 213 207 185 1.2825782454794887 6 6729 7 6689
5034 4.1550224138479575 3.5973120051195959 9.9098109870611069 10 14 15 1.1813729459315498 6 6767 7 6700
5036 -2.7426288845583682 1.6139980261625029 4.3348261048452175 189 147 129 0.47404857401833334 9 8881 7 6719
11464 1.8570413698711665 1.8007385979294643 7.8294642876223186 164 163 158 0.97264260693717097 3 6149 8 6225
5043 1.6493561105276433 2.7630100376800018 8.2567863394987508 11 18 26 1.8486475192855556 9 8964 7 6782
5047 -2.6298923932156617 4.0458435077319184 12.42011751795178 9 14 17 0.086762351580042252 6 6873 7 6811
5048 -2.5530820205634348 4.0445340633200901 12.468593584944706 11 10 16 0.71441981075190297 10 6246 7 6815
5049 1.841569241333574 2.4944383869861055 8.1117116958782223 210 213 208 1.3266042463687644 6 10537 4 4053 7 6848
11472 3.5962243192100023 2.4729726001025423 10.221776165075774 0 0 0 1.1626881325051959 1 7493 4 6196
5051 6.5670537195636394 3.9047512157779263 13.032154024969486 46 46 46 1.4423717588029383 6 6931 7 6857
5055 -4.4692755690365198 5.507819050675228 17.913113534589712 42 38 35 0.088052742201957607 6 10523 1 7228
11477 7.842521859008035 2.1106130227028497 9.8171294209676905 39 38 44 1.5430364261747167 4 9420 8 6301
5056 1.8224496742171077 2.4245605130255958 8.0777294295905495 220 221 214 1.5596131641739734 10 9463 7 6879
11481 1.2200880367260827 1.8100224536317784 8.7256728753642463 53 84 122 0.46042738152354151 3 9356 8 6316
5060 -3.5074870675436127 6.0588669948238119 20.138835471313435 52 84 117 0.32155790625253644 10 6320 7 6887
11483 7.5631557793684534 1.9115647172020991 9.6368617557067182 180 158 142 0.11389774122179749 3 9381 8 6342
5062 -5.0537938136542238 5.6512787028036682 18.769159050180132 0 1 4 1.4793132500788089 6 4681 7 6894
11502 7.3975907273665982 1.3955478231840557 9.682217385953054 28 28 30 0.18614981071842082 3 9504 8 6481
5081 6.1742601639649406 1.989670971630779 8.2006610283420898 93 95 92 0.44158671490338297 9 9260 7 6980
5091 -7.2345248051529545 4.3819525580400649 17.581984386708921 0 1 13 0.33244446781123305 10 6242 7 7016
5099 15.232168483181063 4.5114464872348794 22.269788719380006 42 66 107 0.59787065323978794 6 10773 7 7036
5100 0.598650357806639 2.1339197298780981 9.6319364311536297 37 67 93 1.7414025813134952 6 10779 1 7539 7 7040
5101 -3.7532434172504607 2.1259165737167804 8.9849576367835429 103 118 141 0.42344391509711876 9 2468 7 7041
11526 7.1276353708277371 0.21957725644556972 11.293579700085704 0 0 0 2.9969478992403773 1 7738 5 10074 8 6619
5105 -6.8484874654754515 3.9338304051787585 17.588306836979527 154 149 152 0.49571209971995489 6 4759 7 7064
5107 -1.899699066731946 2.095286907990257 9.6439772310661063 26 54 82 0.20800796195707066 11 7797 7 7066
11535 7.0618613245581292 -0.24334965969440603 10.398950668105192 79 78 83 1.1093684062114488 11 7943 8 6670
5114 6.2883164185781366 1.4202440299400545 8.774607284919048 93 123 157 0.21046021557631769 6 10810 7 7095
5115 -3.650794527442871 2.8098988181538029 14.184330289692216 48 73 103 0.71711456912779015 6 4770 9 9416 7 7098
11539 7.8535265404837338 -0.79753157559672094 8.9986052719001268 43 46 58 1.0640500783018778 4 6525 8 6689
5118 1.8073580282024382 1.4021633751747185 8.5622588843205119 228 228 226 0.50036961360315313 6 10831 4 4350 7 7117
11543 4.6444360551430472 -0.76550318215399726 9.2266950992366823 142 138 141 0.867824904010843 3 9770 8 6705
5122 1.9289760081393144 0.86961723116940981 8.8313898830951505 223 211 198 0.66929938879507722 6 10860 7 7146 4 6390
5124 -1.9212140509438937 0.55512625325159537 10.850045574553704 153 153 151 1.0520836876735036 9 9527 7 7199
5130 2.6341363030451124 0.051363356952022834 13.374212720385763 216 216 218 2.2433393382316185 6 4847 7 7245
11566 1.8539645027654883 -3.5986312131245235 10.389206717196016 128 132 143 0.63566516046188226 3 8142 8 6830
5145 2.0922389359732936 -0.49163305647623629 7.0128968118968036 230 232 224 0.13168056986360241 6 10990 7 7400
5149 0.065631631020485234 -0.33433895827865956 5.8338692425197154 196 196 197 1.2277243626372352 6 7239 7 7420
11576 6.3860980220085484 -1.4368576125886654 9.4779855483587454 0 0 0 0.33399212572426984 4 4546 6 11065
5155 1.4542172962542252 -1.1272236924382157 9.5140529678017565 230 235 231 0.48393369847377155 6 7551 7 7538
11582 4.5000501436433735 -1.872604582805292 10.656021675746235 97 97 99 0.64403715682627549 4 10225 5 10548
5161 4.238639857930468 -1.6141453876051737 10.934256235460261 76 78 75 1.724426093138224 6 11118 3 10011 8 3370 7 7565
5163 4.1833243101011801 -1.6934383829405413 10.886504611996649 86 87 89 0.3969314436445297 4 6629 7 7584
11585 4.5857769103677164 -1.9210081467063418 10.517890994885841 17 21 24 0.40979832633579216 3 10052 8 6960
5164 4.1061928396681324 -1.7540884661948606 11.262442784098223 49 53 53 1.7768575227184711 6 11127 7 7585
5174 2.443078519775693 -2.2506728492698822 9.9952392571701232 124 123 141 0.45381751259889835 6 9680 10 9133 7 7716
11605 7.5495724964452648 -2.7735143529172626 10.163739312081729 35 33 38 0.27442265072406757 3 10156 2 9876
5184 3.2390868763737743 -3.6998970033252534 11.34306551057294 4 3 9 1.3411840460805051 4 4708 7 7899 1 5443 8 2472
5191 2.9205332592818323 -3.8207865027094643 11.028337728834897 6 5 10 0.76857879721126965 6 9665 7 7934 1 5470 4 4444 8 2499
5192 2.8786593691478792 -3.8373891854856486 10.990682199877934 3 4 9 0.89053330355807303 6 9778 7 7938 1 5474 4 4403 8 2502
5205 -4.9471033607320694 5.4023398345754234 11.006651079273462 71 70 75 1.8684078357012415 6 8199 7 8037
5207 1.8642544875921534 -4.0057697506951211 10.618897314664881 1 0 18 0.80660477412688736 6 10710 7 8129
5208 -1.9819156160966704 -3.4719990957189437 10.599922104329213 27 31 40 1.2035086608412748 6 4801 7 8264
5209 -3.1879494645536885 -3.8645685794213103 10.758767313602256 133 136 141 2.0342381747774678 6 7566 7 8286
11632 10.310962547696564 -6.6848015400509126 17.817946180519886 157 159 158 3.2984410094120378 4 8903 8 7149
5211 -1.9803313300299503 -3.4277319547858438 10.593446561100665 7 13 25 0.46070487520042658 6 4850 7 8353
11635 9.4970389761446956 -3.7065641227699486 10.217792068063989 245 251 248 0.82816897334496198 3 10242 8 7158
5214 -1.1758581297004365 2.6439243560568908 5.3372214103130791 236 251 93 0.46606950710924333 6 8900 7 8388
5215 -2.1095417660348881 -3.3999418806856436 10.614017568746712 79 96 112 1.0340830028223202 6 10814 7 8394
11638 6.313284769645465 -3.5851359296231311 10.345083990224794 69 76 91 0.96596800869901944 3 9986 5 4902 8 7168
5217 -5.2500822966927592 5.5743245930685958 11.595120740364777 239 246 238 1.1841585910205197 6 8394 7 8456
5219 0.82389352850493103 -3.6413238561178654 10.514549489099437 246 253 245 0.87286575096285546 6 10418 7 8505
11645 5.4313454147696998 -1.1451093346335792 9.2931081439399232 39 38 50 0.3300833333675201 3 9929 8 7226
5224 2.5829592738650087 -3.8574945276748922 10.713872999397326 201 203 198 0.8930741582189613 4 3180 7 8654 1 2659
5225 2.5977856888994157 3.9232083159726203 8.1860031004720604 231 222 207 0.18565119358723703 6 6119 7 8658
5227 6.7271544042372948 5.9820703990182746 12.573808502499816 63 64 61 0.81332747490133028 6 9190 7 8677
11657 5.6804182620216865 -3.630874945454047 10.390719306239605 244 254 253 1.6877795381821918 4 7986 8 7303
5236 -0.40647908668276117 2.6866098140415593 5.6710921452239758 237 255 110 0.19622733720072483 9 5104 7 8757
5242 4.9399874990886108 -4.0833390961499267 10.681734273253246 43 76 131 1.6309779385760486 9 6363 7 8859
11668 22.207903678539846 8.5670566821269745 42.031721935654474 24 25 29 2.4667117487298391 4 9499 8 7388
5247 -3.4603077506849269 4.6944775581036442 10.324684504018986 50 50 52 0.55616734327811312 6 3949 7 8964
5250 5.7393071843579007 -4.1200153856695509 10.536822823496472 5 1 15 0.029173574970087324 6 7681 7 8980
5261 6.2399899308173792 -4.1415321829656255 10.546993852016939 13 8 32 0.16646285070904937 6 7759 7 9197
5269 0.56275198173475238 2.2377712391639526 5.0588250998619202 222 222 218 1.3371800341010751 9 8267 7 9386
5270 0.073314645070400336 2.9025625913562574 9.9260016882560951 103 102 100 0.11716180845342888 6 6968 7 9392
5273 -0.4844715483933848 3.2440810193308698 10.421395981778572 140 143 136 0.69889766535478959 10 6270 7 9444
5276 2.678208745555696 2.6663041270855072 6.1392371851530987 207 220 218 0.37619927943882181 9 5408 7 9487
5277 -2.0161659659772861 4.9091660840130347 11.531523757332462 227 213 178 0.99018498056088455 6 9549 10 5717 7 9512
5279 1.275385646795677 3.1199768380098951 7.2712307288058042 10 5 11 1.7587737027956776 6 9798 7 9522
5280 -1.5067639000689461 5.1066027827956058 12.013803765106051 241 123 147 0.46331653749567786 6 9569 7 9527
5282 -1.1619914139424823 2.3745180698795605 5.5119783025386591 251 255 97 1.5389684886017549 6 9790 7 9534
5284 1.8490805238215984 -3.5358361931110083 10.534619691891244 46 46 58 0.56388105154248769 4 8670 7 9537
5288 -0.78054172425481605 2.2696740969490476 5.3174907688628661 203 255 172 0.76189396998439607 6 9870 7 9610
5289 -0.74789366382879485 2.2659219534211332 5.3575174557971401 77 229 157 1.1519165885709293 6 9916 7 9660
5294 3.0656083231983304 -3.7573981826980063 11.195956848454472 232 231 227 0.46458278105773665 4 8723 8 4876
5303 -0.18579157252700024 2.1850270988562102 5.4376207045547966 249 254 249 0.73795075508797314 9 8617 7 9915
11725 8.7896812558937665 3.1837085358474213 10.900041898912807 20 3 5 1.047334104674396 4 6041 8 8872
5304 -2.0308965429983825 4.5981021445591068 11.679605666319212 97 83 49 3.1415424603875968 9 3600 7 9922
5306 -2.2758070911323949 4.6927310172739922 11.938661945489892 4 3 3 0.53358692459092671 6 5156 7 9943
11733 8.057840136417612 2.6807963297300699 9.8717509555669007 211 146 124 1.381209985499144 3 4250 8 9013
5312 -2.3322572614601871 4.6268053959387103 11.963873714036675 106 122 138 0.41351392411205745 6 6615 7 9987
11737 -4.7059646314102253 6.048603568344725 22.476672345357105 171 194 211 0.34478816469615137 8 9055 3 9084
5316 -1.8110927237158392 4.4107368356043084 11.458953044182296 0 6 9 0.71540066345530806 9 8523 7 10001
5321 1.2546692078680657 1.5244145603732291 3.9088911220942442 249 247 238 0.074965539247778906 6 10276 7 10025
11745 8.8564026303888319 2.6091447528298546 10.188226622472069 44 44 44 1.9363129354690962 4 9249 8 9127
5324 0.30352776107803614 3.6264352783560287 9.7053913707936736 1 2 4 0.049451372330231794 6 10219 7 10107
5328 -1.3340053204239268 2.468519644718278 6.6089861604902875 231 212 182 0.16671914838677893 6 6741 7 10136
5330 -4.5610869716424087 6.6680423045391013 18.109091626602723 1 1 1 1.1313261299267132 6 10153 7 10143
11754 10.023017463520278 1.9463744941660552 9.2167103963909174 29 47 79 0.49312770279509266 3 6184 8 9352
5333 -4.7352701638328423 6.7697415389803561 18.52691719153469 44 39 36 0.43488915876799872 6 5473 7 10162
5336 2.8504876970812711 5.3153716142242891 14.935280268188281 28 37 34 1.2779043448657208 6 10272 7 10187
11762 11.029110107636356 2.3535028618184191 13.556618497834402 1 7 20 1.6017006870984236 4 9548 8 9466
5341 6.1928077137595947 2.7324061622710007 8.1137385848475478 51 67 57 0.60557504078614888 6 10432 7 10255
5345 -4.5324076341632669 6.0812730458350117 18.354964142264294 1 5 9 1.4399878009193559 6 10405 7 10335
11775 8.0218853785391762 0.77478962982773847 12.260958929848302 88 90 89 1.2983447668603367 7 11068 8 9631
5354 -5.3729680337377941 5.6623442425152488 18.36150190732814 21 21 19 0.33945194142113022 10 6313 7 10516
11780 7.1487467120370827 0.25243773950984583 9.7575665162204732 91 91 91 2.1390363002123038 4 6418 8 9655
5359 -5.7243690664085953 5.3038042648338362 17.656473267628808 29 47 57 0.74161665317032743 9 5857 7 10557
11781 5.1511044232969825 0.18754272614215167 8.7169615803248046 141 154 160 1.5944588852115082 3 9634 8 9679
5360 5.4647114570510684 -3.6942203105022875 10.440846831774865 160 169 174 0.2175754964177728 6 8002 7 10559
11782 5.2465664765571374 0.17357434856092238 8.7179128463636424 48 38 52 1.4665783213673342 3 9641 8 9685
5361 -1.9501441135607964 7.19123685979116 24.468351390959533 40 68 91 1.0579158160036701 9 9105 7 10563
5368 5.4972933306221661 2.442430373263822 8.8250211134254979 117 126 131 0.61064625043813892 9 9164 7 10585
5377 1.0945418057116871 1.0664668246370044 3.8094796538692224 33 33 31 0.13946600800066195 9 9216 7 10625
11800 3.2938496770867549 -1.8740040718935698 24.266809294853747 61 63 84 2.2674213285858462 3 9775 8 9980
5379 -5.0640219224842475 5.3858426813422664 18.957983404413607 40 42 40 1.866481415703432 6 10623 7 10629
5385 -6.9629968791586538 4.8269078435375334 17.310416688908266 94 96 91 0.074174225105763394 9 9226 7 10651
5390 -7.085976437907493 4.7734520199808994 17.457408310391987 170 169 165 1.1049941664127365 10 9670 7 10680
5393 6.2687695410659661 2.0112220930369165 8.4649966816259425 38 62 93 0.26837068129417507 6 10723 7 10708
5395 -7.1704832325707937 4.6373433980420726 17.527449252494755 91 93 87 0.83856132378363901 11 6371 7 10718
5402 -2.9437241859390872 5.8977123035282331 23.976266337240151 31 54 83 1.7085268829341866 4 1933 7 10752
5404 1.8139875312312823 1.9474128489137581 8.5029474560407206 226 231 227 0.31379003047020643 1 7524 4 6220
5408 1.3749994465490192 -3.9969290510618305 10.640841693725861 12 7 20 1.1861711555348355 6 10738 7 10803 1 8474 4 9982
5411 -6.3298802821664877 4.0742508583386323 17.103970346709438 120 127 137 1.3664784781096644 6 10771 7 10823
5412 -3.5012434093352724 2.34161912040202 9.8673481988431977 84 100 124 1.7172376374371736 9 9342 7 10829
5413 -7.1617640043216637 4.1538944944834695 17.6363140846215 123 108 111 0.39455689109901837 10 6467 7 10835
5419 -0.49698952169936256 2.2669138756254394 10.792626008482463 2 1 7 0.63288301315752538 6 10799 7 10863
11842 4.9640421985969576 -2.1731009621243023 10.093661380004603 113 114 116 1.0866452297011127 7 11911 8 10746
5421 0.017357744107073782 2.122032974580391 10.256697498184346 23 28 34 1.6820084053952056 6 7111 7 10865
5422 2.9440826389295198 1.8139310977541652 9.4500420508162737 236 232 218 1.1347411175345206 4 6309 7 10870
11844 5.0193883649008022 -2.1899656102353835 10.022000892488471 86 93 101 0.57406600545612263 4 10292 8 10766
5423 2.8937250910121999 1.7672129098819576 9.4191541241789292 248 189 149 1.0574903287522535 4 6321 7 10877
5424 -2.7526864140688376 2.5085060913749619 12.417420648114591 3 1 0 0.46583007033483775 6 10809 7 10884
5426 2.794152084632072 1.6762689059231741 9.3580604931809361 242 175 148 1.2797035409488628 4 6334 7 10887
5427 2.7402678064989572 1.6266465235413334 9.3195013141643681 251 180 152 1.3879968718253275 7 10897 3 6243 4 6336
5428 0.68792429593683679 0.77435639289990832 4.3963829222109201 236 202 180 1.5593494140689712 6 6722 7 10909
5441 1.497286656844766 0.78684634107678841 8.7808787949340328 198 200 197 0.68014474492402288 6 10868 7 11066
5442 0.94399570539414468 0.80529903256228785 8.7846518724034119 206 206 204 0.82073969934401836 6 10869 7 11069
11864 10.562555523690955 -2.9645323901314793 10.284988132061761 57 67 79 0.6008187441629248 3 10147 8 11076 5 10562
5443 6.2355875109825343 -3.6508474370992312 10.442095542772131 184 190 188 0.22169688516869457 6 8550 7 11090
5450 5.988848105551356 0.27839586624859197 13.376902817571015 197 205 208 1.4110963100411187 4 4991 7 11166
5451 2.6302783882954781 0.48000424915683454 13.915964301015073 157 168 169 1.0410444952528373 4 9722 7 11170
11874 4.079669302229691 -3.1445865441926766 11.597696845220302 20 24 27 1.1307480321040837 3 10217 5 7082 8 11194
5453 -1.2492189932943438 0.41260024562173109 8.8938470424149418 48 48 55 1.1439718544454607 4 9689 7 11186
11875 1.0519558089198537 -2.5026827736019794 9.8733368320982233 3 2 7 0.64676478166526796 3 10206 8 11202
5454 -1.3396779210890404 0.42093466259630236 9.0058826311355471 4 1 7 0.83078587479938093 6 10925 7 11187
11878 4.2907853034784909 -3.3133701822096877 12.175927426672558 128 135 151 2.8918828666469185 3 10207 8 11214
5457 -1.8492144513836 0.42556783193897785 8.9981103369582307 198 197 195 0.75707889070944068 6 10937 7 11208
5459 0.22543770992633366 -3.9645850616311487 10.667489812243906 4 2 15 1.0644850087080266 6 10922 7 11218
11884 10.865902333361905 -3.4690498123466029 10.666863876827341 35 51 77 1.7112071617532549 3 10258 8 11296
5463 4.0694245239634519 -3.5871671566208319 11.57841141460387 1 3 10 1.2255739746385956 1 8398 7 11321 4 6786 6 8215
5471 5.3255707064110558 -0.76380380025858652 9.3199301297538728 51 57 69 0.33002026234052484 6 10983 7 11380
11896 5.7130782012472681 -3.2605720388278043 10.373994850749222 100 118 140 0.87440524763506977 3 4735 8 11358
5475 4.0432111597190667 -3.5547155896934286 11.648138679859578 96 101 107 0.077189736676171822 9 6313 7 11431
5481 2.8402048554549477 -0.77777264614825425 9.3793725748805556 58 61 76 1.3269539715842988 4 9946 7 11489 1 7849 3 9826
5486 -0.80413563330699056 -0.60538352480697233 9.4492912994721454 248 251 252 0.8426135837287132 6 11077 7 11537
5492 -0.32189976859933372 -3.9614969229680734 10.708252909141745 7 5 6 1.0114284506046083 6 6945 7 11590
11915 5.6935068098276593 -3.5510114103760912 10.437104612850284 94 114 139 0.42228237553541964 3 7250 8 11482
5494 4.128148137279779 -2.5030519152943054 24.28775486901371 129 136 137 1.9109196235074628 6 1542 7 11666
11916 8.5411896334470008 -3.7743010591654826 10.43611369567278 0 0 0 0.49864299698826298 3 9915 4 7348
5495 2.5265173525366498 -1.1058534197576253 9.4771135739568848 188 190 185 0.25360354452122802 6 11098 7 11669
5499 -1.4249974130607366 -0.97380829235243438 9.9198722094324836 4 0 2 0.88107821258286279 6 11134 7 11751
5501 -1.9170028148272098 -1.3667868013436957 13.928381842800661 5 5 7 1.5307594112810781 6 11137 7 11758
11924 5.9849944137390869 -3.7329023876085698 10.385441033633873 246 255 236 2.3015956746435386 4 7159 8 11607
5503 -2.520123854916855 -1.4224132763164883 14.654369669700506 2 1 3 1.5641394082832254 6 11003 7 11772
5505 -2.3703373878007215 -0.91053545089875121 9.5772405784955694 7 6 6 0.43895143493640909 6 11089 7 11782
11927 1.7783306437256723 -3.5721207013722691 10.736739065363196 64 81 108 0.052300123764848862 3 9002 8 11620
5506 -2.4527930648851517 -0.91815876919690853 9.5686726327614746 195 196 191 0.39161200591318845 6 11067 7 11791
11929 8.6393924429241071 -4.3163945222499569 11.266083171162302 89 93 96 0.86659322918856674 4 9441 8 11698
5508 4.7431605413108873 -1.7642161850244846 10.417767105214455 35 49 75 1.959584764348314 6 4960 7 11813
5511 4.4510944947909881 -2.0269165331461045 10.678261238264453 166 172 172 1.3773813833022583 6 10840 7 11864 8 10645
11934 -1.4341784787902785 -4.2403294896010069 12.534610184938387 102 102 100 3.212346253401194 3 7350 8 11802
5513 3.843977056964528 -2.1194208569806632 11.315303960403011 206 207 201 0.51519084755752798 7 11874 8 1262
5514 3.1133626159779904 -1.8850558993279598 10.097728265654185 173 174 169 0.6718028658296249 7 11877 3 1056
5524 3.1492028711111826 -2.367847532541608 10.665653715466728 200 199 198 1.1355915859620915 7 11982 1 5307 4 4609 3 3194 8 2343
5525 1.4210650440076842 -2.0735292999992332 9.881307455355957 250 250 246 0.26936196886423674 10 9074 7 11996
5526 3.0857582937346044 -2.3986483364181903 10.642468082286236 78 76 79 1.5141424846817348 6 9740 7 12001
5531 4.3847154440807365 -2.8925939678036383 11.110018807706375 37 54 80 1.833683592664813 10 6844 7 12090
5533 2.5475124455694438 -2.521334420005946 10.06297107576866 4 2 14 1.468538565273898 7 12105 5 3169
11955 2.4019944019576522 0.34821030138515263 4.3233489522172732 3 3 3 1.4295109116706983 4 9638 8 12123
5534 2.4873054551722333 -2.5863443951406682 10.077820524359417 212 213 207 0.26686277936916092 4 10433 7 12133
11958 6.1312340340433193 -0.057124360964057874 7.8224926667537948 112 112 112 0.41865363924523047 4 9793 8 12138
5537 -2.2981053021618298 -3.1268219682046245 14.58961621922338 19 20 32 1.2191272804485593 6 8139 7 12161
5539 1.0207813880223262 -3.7565450453257787 14.813968333877515 83 94 104 0.222229191060131 6 7350 7 12189
5541 0.70542828820979264 -2.5596175589651051 10.113596242750955 220 232 232 0.36961427122529728 6 8699 7 12220
11967 9.3009134809108804 -9.0748546924657116 28.073863602590688 83 91 99 0.44127062714426579 3 10332 8 12246
5546 0.14531827379889903 2.8077902983539227 9.9760457383206589 23 42 65 1.437970575803684 6 558 9 487 11 589 7 564
11969 9.7720437953562627 -5.2471454005462466 13.722066821714378 87 88 92 1.0020736322710206 4 9428 8 12268
5548 1.5086500358328474 -1.0281401372418078 9.5046055764360879 81 84 88 1.9726528485788819 6 1540 9 1859 10 1443 7 857 4 1074
5553 4.3449497472264413 2.8773206103588338 9.7103395657456915 75 78 78 0.90573970552544214 6 2972 9 2406 1 2030
11979 5.470522545418115 -0.80412183626977718 9.0398474490855882 92 93 97 2.2787922503357443 1 28 8 27
5558 0.25326366095223896 -0.48762563818071603 10.501398916498401 192 190 191 0.78631419558982685 11 132 7 99
5564 1.4115157172877035 -3.7108457233230223 10.510938042122126 126 132 148 1.3174630066808315 6 432 7 276 11 657
5568 2.9394844095896584 0.60116459751968121 17.883469843961464 47 52 48 0.77983259283068984 4 387 7 395
11996 -3.2957123760793312 -6.9386884078855253 26.575381822873126 162 166 175 2.4749844967629371 3 750 8 649
5575 1.9962288730446109 0.84445411049196595 8.8776451970419572 1 1 1 0.67116115442187485 4 384 7 593
12002 -5.6173188411181894 6.4242176422814197 23.325726752372773 29 34 38 2.3457111573791689 3 944 8 806
5581 -0.16485659502466268 2.3076888422637452 5.57599068195724 37 55 69 0.67076971258724383 6 2030 7 993
12004 5.9111593988471789 -3.6307473375174295 10.474618829133085 0 0 0 1.5676104588501629 6 2212 7 1087
5583 3.8357780435394981 2.595799201671277 10.048080971234274 32 17 18 0.91625372339182376 9 5110 7 1230
12005 21.957807118495662 0.14856354305916433 29.983505066514049 221 229 232 1.0466328884843146 4 1043 8 840
5584 -7.0046071131994703 4.7613510565476247 16.592787822053989 232 231 226 1.0713933619224145 9 1246 1 1470
5587 2.7532723076105139 3.7939101022547668 8.4523625838120111 248 200 41 0.18910104865627234 6 2741 1 1306
5589 1.6185016155089564 2.3801016546360358 8.3830039831848477 108 118 129 0.57781109187334445 9 1241 7 1502 6 2148
12016 3.735440904126309 0.0027373777584704345 5.5381118676705103 236 241 239 0.78793166107060664 3 1369 8 1170
5595 -0.326927308696494 2.1191204290398988 5.2017728988567873 0 0 0 0.04471465686967864 6 4419 9 2364
12018 5.7345474933348184 -3.6064183410103934 10.30084442565787 0 0 0 0.81519932416198282 1 1626 4 1528
5597 -0.75275093188399966 2.2816384635535671 4.7567107915825986 3 2 7 2.1416119199512771 11 4571 7 2163
5604 4.3066705262212412 3.2669822061216012 10.296039871550246 28 22 22 0.96953304254833861 6 4652 7 2727
12027 5.9742636791180752 0.11071071224523182 8.3482896860435982 178 158 170 0.63247626352627706 4 1429 8 1608
5606 3.4887879564697792 3.8915517381199063 8.0189746720683104 87 3 6 1.4654659367818663 9 7553 7 2781
12030 3.2971854496472037 -1.8744132004744671 10.49096244783366 179 179 177 2.2802255499771165 3 3011 8 1684 5 2180
5609 1.6912160467541708 -5.4662998064530548 15.362566988286911 248 250 249 1.6937335672650367 6 3053 7 3062
5615 2.5683495763278263 0.21167481433345992 8.9972452661238798 51 54 71 0.45132426123051361 6 2319 7 3257
12038 11.356620057236823 3.113092215928789 11.133082440507888 109 123 116 0.8925306736227161 2 3817 5 4094 3 2925
5617 0.73398185233556679 -1.0625855076316049 9.5532222867303265 72 72 72 0.33767098375035043 6 3156 7 3406 9 4177
12039 10.06703981468346 2.1228827245529911 9.9536799820510584 35 59 94 2.2044355354111005 3 2840 8 2123
5618 -1.9221731386946066 -0.91511223594712554 9.5629309923996555 3 2 2 0.63437488508499418 6 3170 7 3430
5619 -0.74815390088817701 -1.530053382112702 9.7557080569492172 182 186 183 0.01588906804331347 9 1427 7 3480
5625 6.6598391247378155 8.2539817583469812 20.70600827891829 0 0 0 0.10708217817723317 9 3522 6 3267
5629 -1.4382647132113919 2.3135210610975077 6.742015011814166 22 24 23 2.2558588172311609 9 8974 7 4624
12056 3.5061687038261313 -3.5883659555543299 11.567127407488933 0 0 0 1.622659742292186 3 4743 7 7860 4 4697 5 3157 1 5422
5635 -1.3698818073967984 0.13533662508970254 6.5502633335965772 0 0 0 1.5153507389979419 6 3667 9 4111
5640 -7.1993698006015494 4.5218129562850722 17.410189820070947 4 2 5 3.4592822436347763 10 9697 7 5533
5642 3.3560500261638211 4.054309702942442 8.0339544948532762 228 226 213 1.9638726048997184 9 7256 7 5680
5644 1.8985964973963831 3.10980642049357 6.6547965818176031 109 0 15 1.9488352676961473 11 4525 7 6028
5653 -6.3370374175309063 7.4277248672989371 18.618082124167291 80 83 76 1.5780528350569647 6 6455 7 6518
5657 1.6606973831280327 2.3803408931945231 8.3889711509412361 52 60 73 0.35025645480700213 6 6990 7 6916
12080 -5.1617268519889414 5.5677422625175952 21.418931443499954 0 0 0 0.45046857780442717 3 4270 4 6124
5659 4.9776736221369351 2.4827197170218573 9.4582012571673406 43 63 100 0.79172108101928029 6 10670 7 6951
5667 -1.7820302249057645 -0.91159074445407495 9.5503963002211254 105 105 106 0.32166015635852074 6 11138 7 7555
12094 0.48766986066004736 -3.5872999517812669 10.461594240978474 51 60 67 1.0657175101245666 3 6754 8 4893
5673 2.6652516102659649 3.8186439031539123 8.026204138173707 232 224 211 2.3867375007055553 6 6168 7 8697
12118 0.59952160941705401 2.0668892008124402 9.281164030553791 35 58 90 0.52951409155081952 8 6271 3 6166
5697 4.0337920352714827 -1.3577493535286782 8.2650426127383216 98 105 111 2.5468706048328933 4 4557 7 11795
12123 6.3341184381197362 -2.2757552692008636 24.7683461868344 203 210 208 1.4004875469562579 3 9851 8 6775
5702 0.90146824836676087 2.482711967478811 9.7040130922232102 26 64 103 1.9685459625549335 9 357 1 189 4 274
5756 -1.030819548328662 13.862175401364697 32.513742750679832 0 0 0 2.0552364679480641 4 5369 9 5212
5809 4.3940064344139644 -3.3420845431324162 11.208950410838325 90 94 97 1.1725956164831735 9 2673 3 4727 1 5413 5 2106 2 1328 8 2447
5851 7.2196469563894192 -0.28929388308552206 10.086597140264177 0 0 0 0.4813917406553071 4 9821 11 7942
5854 4.8977935587072601 -0.19257188155832738 11.166790452708881 251 251 249 0.89805297075156632 4 1 1 4
5855 4.1257529129738186 1.6434633372670229 10.379680992775862 0 1 0 0.97137320172953479 4 2 1 6
5856 1.1182051401560233 1.2471051296758449 8.554272167424946 0 3 7 0.34263161616580745 1 8 8 8
5858 -0.87048893152578855 3.3623924829871354 9.4423254196138338 0 7 14 1.7157364213866759 7 11 1 13
5866 4.4133726415700307 -0.5711676241246928 9.0789640375277667 199 201 200 2.4801128703319231 4 49 1 53
5867 6.0515300231686409 -1.3984522088088809 9.4390950898892214 227 233 233 0.09257233628422569 7 95 1 57
5868 5.4294499758560502 -1.432136411615424 9.4084959689492695 249 253 254 2.0142931524348966 4 57 3 64 1 58
5869 3.4464166487091585 -1.5966298592102823 10.071841227559316 188 188 186 1.6343598946429421 4 35 1 59
5870 2.2638228986726445 -1.9340971672282836 9.8074739885617781 237 239 238 0.56534658375874869 4 71 1 61 3 70
5880 5.2120063784144195 -1.4209218606274221 9.6885996941525416 8 27 57 0.26737886050707727 7 116 1 96
5881 0.63122601351263286 -1.2289392973414646 9.5985872428142933 127 127 125 2.2406767126754996 7 93 1 97
5883 2.5735649007425359 -3.763669847384858 10.638488659484457 192 192 190 1.1757917906109958 7 437 1 109
5888 1.2799673257225739 2.2153355352133404 8.8744422178400786 24 62 101 0.96590647390755502 6 127 1 127
5889 0.65597840080640579 2.4629490412163482 10.035212856730729 105 145 155 0.47493094024010918 4 120 1 128
5890 1.4579332908858098 0.49687762913930583 12.083875507480832 194 195 190 1.8764413008248766 6 145 1 131
5892 4.3362847443813628 -1.6900821534794916 10.799022892822471 19 24 28 0.85297812883290702 4 197 1 140
5893 4.7588269412185946 3.1578661098306346 10.140058662010293 17 17 17 1.5924244577389428 1 141 3 88
5894 5.1098549846376145 -2.7580793216096446 10.088888477093226 18 34 59 1.0967714977180527 4 211 3 222 8 190
5897 4.6283546237555946 -1.8209570548976701 10.544214216035188 1 20 53 0.42729491472066017 4 198 1 156
5907 2.4408286589832624 1.4988788431125697 9.1450983706551998 101 55 46 3.1722554853918496 1 197 8 248
5908 2.1374273266977712 -1.1907251516756352 9.6413117494555998 192 194 196 1.5191041050682776 4 302 1 207
5909 -0.07599853607808571 -2.6828306858944275 10.140537486825284 42 65 99 0.04720548880290304 4 212 1 217
5911 1.0149443664073141 -2.7514881012935044 10.227600108113171 52 75 107 0.22227422176439809 4 214 1 219
5912 2.1189406861126039 -2.7646873314951903 10.221902888511741 57 80 111 0.45145758341480779 4 213 1 220
5913 5.4137447997915871 -2.8283826851422322 9.9981923738745859 76 101 132 0.046347834967868214 4 295 1 222
5916 4.4932235812859265 -3.5337862245496447 11.10581787415799 78 87 92 0.65076364846649726 7 285 1 228
5919 2.875540266856444 -3.7126887885088489 10.950641048146574 206 208 205 1.2690625799647985 7 816 1 241
5923 2.5809204067675244 3.2269114212206143 10.076610528165071 252 180 151 1.4068893057466481 1 278 3 394
5924 0.17603847463634545 2.0862348433745947 10.390543720488013 3 10 18 0.61063772107673842 7 303 1 290
5925 0.90157715439497088 0.35140808044594701 9.2317760536169686 182 186 183 0.20267380866149579 4 312 1 294
5927 -0.55313959463632545 -0.5632091192390638 10.495543685845444 208 216 220 0.17955599025151336 7 294 1 296
5928 1.8259297638239447 -2.8072003629492763 10.480020533720346 62 83 112 2.713613983780701 4 418 1 303
5937 3.4109481284066088 3.0633429773289849 10.125395683026699 18 6 11 0.55876860022222341 4 552 1 373
5938 -7.5183975973124468 5.0238528658702277 16.259611817587118 220 175 142 0.78913080416514858 10 340 1 374
5939 1.7517401901644674 2.445662268664778 8.3914916407973035 27 25 26 0.074156040938288079 4 366 1 377
5940 1.7556513220968597 2.1003442581129361 8.3764114216943195 30 64 99 1.2313028530233452 4 446 7 310
5941 1.9696609213867555 1.7249173590058764 8.0311011853998302 211 162 148 0.28238419098264861 4 375 3 327
5942 6.2803256182006111 -3.2471572812724037 10.480112936546647 89 111 134 1.264093791586967 4 635 1 393
5945 4.8249927805891879 0.090525495185560634 8.8127926840279631 218 223 219 0.6360125865706604 4 389 5 394 8 341
5946 3.1981714890744959 -1.6006697767996787 10.380022384879233 182 182 180 0.49526453512641511 7 1141 1 415
5948 3.7906835666823961 -1.9519422012521337 11.341646005249173 173 174 169 0.3153986120845893 4 400 1 417
2746 7.0516954116447348 -1.880514607872994 9.7199961318548276 123 127 130 0.78843125981908702 9 6137 10 9997
5949 3.1962959203349075 -1.8928337051444457 10.516452508301485 186 186 184 0.40010807346830801 7 1164 1 419
5950 3.9161187999253069 -2.04636312389326 11.391646372730428 90 94 97 0.37870176812472334 4 444 1 421
5954 4.9302962077842372 -2.0206314923169417 10.247651828940748 6 22 56 1.1718240671700961 6 205 8 508
2754 7.1686807431742343 -2.2969648768782736 9.8333677375182145 121 125 128 0.32958283729300303 9 6168 10 10042
5957 1.5020916708999237 -2.7146746106611293 10.23952528160612 53 76 107 0.34120851595713808 4 414 1 435
5958 1.2920393590029982 -2.702634354564295 10.181962451100938 55 78 109 0.6185463736748531 4 419 1 436
2759 6.1350266911829996 -2.2617704853496088 9.7057508800610002 34 41 67 0.46928386941648415 9 9718 10 10054
5962 0.20200040303148264 3.673333936531531 9.6195470989742606 0 0 0 1.5819586487631634 4 266 7 365
5965 0.76906595340795536 6.2884096076930369 14.420048238752303 153 152 147 0.22877942474091481 11 780 1 503
5972 2.6330679634448648 2.9338558076497314 8.6324665269589218 16 0 0 1.0351415227803651 1 549 3 545
2771 7.7652838375288455 0.056283376567573658 15.380056577140824 0 0 0 2.5368469385440502 6 140 9 128
5974 -4.2400628225987465 6.4912634555081175 18.973295409953057 0 1 3 0.72445788690548896 6 534 1 551
2774 4.6952559847971189 12.349528149728823 39.08529693469157 0 2 5 1.4364676868694544 9 334 10 331
12398 5.0311694722169529 3.3553087447893368 9.264492038212536 0 0 0 0.33202399842856356 4 3934 5 3911
5977 3.495768655938587 2.9427413524620669 9.6752156233493913 22 2 3 0.28962279331112772 1 562 3 557
2776 -3.037039424782936 2.0346767472937159 11.747926528800514 82 133 206 2.4754985781391752 6 293 10 487
5979 2.9922812086530204 2.7839316699682977 9.2902243670053863 252 172 140 0.39257229793952186 4 553 1 566
5980 2.8126324526633302 2.7505299512479922 9.2226270205049179 87 37 21 0.15725564455427776 4 554 1 567
5982 1.9098283780301044 2.4145424518119962 8.3222575009161908 16 3 3 0.55578232871824884 4 561 1 572
2786 5.1909455893941079 -3.6018270851231162 10.439616032993797 12 22 45 1.2530269056695218 9 1908 11 2362 10 1380
5989 -3.0469984712583407 1.0319835655418494 9.0429148755571891 49 48 44 1.5149238676359984 7 759 1 595
5990 0.83034968192080993 0.25798342182419254 9.2144864092628325 239 244 247 0.17279277173325919 4 593 1 599
12414 9.6405965560553017 -1.2735995747457061 13.243476977600741 0 0 0 2.3872145729466627 4 6534 5 6906
5993 4.2267583399122737 -0.69924798217813167 9.1495039690149849 228 228 230 1.3256860551115837 4 798 1 607
12415 4.6831130574230215 -1.077854325927317 9.1144771741345405 7 3 19 0.024900973861569257 4 6557 2 4393
5994 2.541411421934368 -0.81331256297245946 9.1820742842482037 212 217 213 1.4293087574518795 1 608 8 681
9213 5.5209207843115582 0.11412451141983836 8.9695576590157451 92 95 99 1.1226847758210079 3 2911 5 2909
2792 -0.20275829541111218 0.31071122205041718 9.0055612742089295 60 70 79 0.47949087500839721 9 2537 10 1874 11 1802
12416 4.0552933022958708 -3.250313306924729 12.040263230523111 0 0 0 2.3126871818983066 4 6756 5 9299
5995 3.9847186921268105 -1.5831219962231804 11.075902445595972 28 33 37 0.30979427010340654 10 684 1 617
5996 4.8307059564479369 -1.4833909501240461 10.109245105546677 14 31 59 1.8533353776649601 4 615 7 854 1 621 3 615
6000 2.2715117859121241 -2.4933362789498705 10.010514952309096 138 145 155 1.1313974525658086 4 625 1 636
2799 0.83848953892049038 -3.5026990102572184 10.502220878291778 237 242 238 1.6110692568607838 9 1896 11 3432 6 1615 7 1759 10 2752
6002 -2.0488689914059197 -2.7629542218654786 9.812203189694829 59 80 101 1.4179694952889068 4 758 1 638
6004 4.8487777887262462 -3.2632321676564415 11.133714266683288 19 35 58 1.1213261019793848 4 759 3 629
