# 3D point list with one line of data per point:
#   POINT3D_ID, X, Y, Z, R, G, B, ERROR, TRACK[] as (IMAGE_ID, POINT2D_IDX)
# Number of points: 426, mean track length: 2.8718556119571348
2028 2.3717501674330079 1.244393514529051 9.8798577983387137 40 44 52 1.4049603360020479 6 6958 4 1753
8449 1.5814305923504346 -0.49628398612555297 10.577789328239886 149 112 96 0.79826908955904408 3 3733 9 6898
2029 -1.8134377041203351 0.22266007546591615 13.159737237576612 255 254 255 1.0550046383982532 6 1874 4 1804 5 2651 7 1926 1 2571 8 4543 9 3069 10 4989
8450 3.7347156642708197 -0.20823631585709404 9.283829089693727 89 91 86 1.7226295396334865 3 9043 9 6899 10 3054
2030 -2.8023090588303545 -0.15636447007111368 14.032260548244851 129 153 190 0.45698021330374111 6 4741 5 6138 7 5001
8451 2.0154070204735466 -0.45678384826753571 10.584663624509817 140 151 174 1.6932280804677826 8 2158 9 6902
2032 2.1474302140809001 -0.23645917877262457 10.311357605950048 87 110 154 0.67185451393512574 6 1944 4 1872 5 1730
8453 -7.38191615548467 -1.9943531906399263 21.051740765659002 137 98 90 0.48250315283476874 8 7631 9 6914
8454 4.302435703303928 -0.2388042809409946 8.4559467181672119 156 106 94 1.091260065979728 3 3712 9 6922 10 12866
8455 2.801090092062493 -0.51651674617963839 10.095935469845795 75 79 78 0.50779814905393383 8 7694 9 6930 10 7289
2035 -1.6505392976993554 1.3183220164541842 5.6051441331236074 22 4 3 2.3543075675078962 6 3978 4 2450
8456 -3.553199676312595 -1.6985360406054453 18.103598559628299 111 101 100 1.3074968171295867 8 12604 9 6938
2036 -6.5974417418961666 0.43220959087406019 16.629094565549302 131 154 193 0.54035066806828758 6 2733 4 2682 7 2920
8457 0.91223575777568033 -0.92131207979123086 11.338597264294584 171 134 124 1.1139429957103677 3 9081 8 7702 10 12895 9 6942
2037 3.9869610630106544 -4.8965033762992061 14.448923367134137 68 119 226 1.3411551735014227 6 3131 4 2724
8458 3.7501181986401964 -0.57583282656585155 9.457712263857406 84 84 84 1.0639397136983271 8 3094 9 6958 10 4590
2038 3.9531018372794349 -4.3563166676363858 13.482296170607727 180 167 157 1.8776372175526725 6 3124 4 2754
8459 1.8739934009992529 -0.9881361597469358 10.720386455039131 164 125 110 1.5782973413849184 3 9125 9 6968 10 7321
2039 2.2801004175402486 0.22355909271935456 9.9260659325464271 181 120 101 2.1402239648389529 6 4724 4 2790 1 3932
8460 3.0026360271843378 -0.80791951304077825 9.7246810261613046 190 145 125 0.59105765451184555 8 4699 9 6978
2040 2.4798711712525296 0.13676989655895985 9.872011479584712 206 149 120 0.59885907868203003 6 2851 4 2806
8461 -0.67904646468754815 -1.7769484604224084 16.08290424242259 148 122 111 0.57567712260687465 8 7731 9 6991
8462 4.3240224756989258 -0.63474270658349841 8.5468778862457651 254 253 250 1.7243567275058556 8 12837 9 6997 10 8388
8463 1.9098470814923805 -1.1766116291845363 10.29616069896273 159 111 103 1.49700027912092 2 5617 9 7003
2043 -1.4872988320715357 -2.0263548799538142 16.659404205617584 200 142 122 0.71884318851245732 6 2954 4 2882 7 3162
8464 -0.25272149180003584 -1.9962570292934319 16.238955557685657 55 59 58 0.45104204113353807 8 7757 9 7009
2044 -3.9354998223059989 -2.6289880877050704 18.84023023161809 212 158 138 1.0248012792142132 6 2961 4 2886 5 2830 1 2729 2 2619
8465 3.9771519362539336 -0.8651794955450145 9.037372988778376 163 128 108 0.23925145740548695 8 7800 9 7010 10 7374
2045 3.9059593867015305 -3.0289726612849077 12.902696051165426 145 97 76 0.48511919472141063 4 2984 5 2673 2 3572 3 3577
8466 1.3260536035726305 -1.8628501918779383 14.44126343942345 130 116 116 1.1991673487956325 8 4714 9 7031
2046 4.2674270862181389 -3.162892919966164 12.796581737583775 141 92 75 2.4007759258758687 6 3077 4 2996 2 3553
8467 4.5282567048859876 -0.87964203644284156 8.4767526676861262 33 17 17 1.4750023503982088 3 9216 8 12987 9 7035
2047 3.7143188532588276 -4.0030866215976122 14.442860289240784 191 182 175 1.2607908600990478 6 4387 4 3004 1 2606
8468 3.9997200677500535 -1.0214227688862063 8.8522530413180665 198 154 132 0.69305017270903946 2 5653 9 7036
2048 4.634552025870204 -3.2384248072930601 12.449801183106052 162 109 91 0.65792625038488084 4 3006 5 2488
8469 0.77542860767620714 -2.2891449201183605 15.505028624540232 55 61 61 0.802799200717915 8 12918 9 7045
2049 4.431716890540752 -3.3865238489412426 12.72275583958355 161 112 90 0.60667235123785801 4 3007 5 3911
8470 0.10131337383348987 -2.5365158455979104 15.817909654762742 159 131 120 0.37790544026915185 8 7810 9 7053
2050 -2.3141770200325018 1.1925734834894735 3.3775908235736676 91 90 93 0.51396948944328547 6 5007 4 3089
8471 1.9769569553931221 -2.3036079286517683 14.328153631696807 133 138 163 2.1179398874206323 2 9234 8 4736 9 7079
2052 -1.9863271137402156 1.2483877357856186 3.5354191169047926 71 70 76 0.13319689053530528 6 7347 4 3117
8473 2.4776818038243409 -2.444204521349632 13.779268851305352 148 112 100 0.35309040785483409 3 5727 9 7103
2054 -4.9328327302148409 1.0974934337546283 4.1661339187894368 191 179 156 1.1569454305436202 6 5230 4 3292
8475 6.1195127507962264 -1.4241000654748541 10.7922008033258 132 96 84 0.37504307127467107 8 13126 9 7111 10 13423
2056 3.5250243869108622 -4.2922829630136894 13.583612667097109 214 208 199 1.6517899346060509 4 4085 2 3533 9 2965
8477 6.1737909841847802 -1.4608404637731494 10.743579990569193 132 96 82 0.75454517267132504 8 5129 9 7116 10 13452
2057 3.2211667052996131 -2.9324924331013489 11.140877685680403 179 121 99 1.479743240349592 6 10659 4 4103
8478 3.8601995711975818 -2.213739113329638 12.681253169204794 0 0 0 1.4330323532988978 6 6645 8 7896 2 9276 9 7121
2058 3.8103880663366017 -3.4188030675754804 13.077204070753821 185 129 106 1.6237968707192936 6 3091 4 4107 5 3916
8479 4.2726433220367035 -2.0920930290658277 12.335580746350184 142 108 99 1.1508104745229493 1 5810 9 7122
2059 3.9562635406500188 -3.1160795750048416 12.920194833834696 171 118 100 0.81562524613228593 4 4117 5 3924 2 3566 3 3571
8480 9.6291734658252626 -3.2237913554018784 27.03361348792518 149 107 88 0.28040577002690192 8 13085 9 7125
2060 4.2291960769411414 -1.7554849024394803 12.402393317417308 235 159 136 0.44438795632014655 6 3012 4 4162 5 6323 1 5954
8481 5.1451379093786409 -1.8989289804970078 11.638754737181262 146 113 98 0.11581678558413161 8 4765 9 7129
8482 2.6980761177001682 -2.8100457621261192 13.857466448290618 191 147 131 1.5623094382538787 2 3602 9 7137 4 1285 1 3765
8483 4.4544617780555411 -2.3292895649028029 12.31280415192254 155 114 104 0.80129382300579854 4 6435 8 4770 9 7144
2063 2.3298100870994114 -0.00024774751971012735 9.8509128564064934 255 254 246 1.602575677477134 4 4299 5 4014 1 3748 2 5494 8 7577 9 6827 10 7213
8484 4.2507586620372511 -2.5002594133495735 12.510572027215103 137 108 99 0.41082896734406393 6 4461 8 4772 9 7147
2064 -6.4440700486214073 0.33095864730276331 16.323982419908823 253 255 254 1.5178334346269673 6 4311 4 4431 5 4263 7 3401 2 8593
8485 5.5943310648393236 -2.2094172304976465 11.835488366724283 56 61 63 1.111266417416702 8 13215 9 7155
2065 3.698546160035002 -2.2616697030325836 12.832729606029801 177 135 119 1.8745561719289145 6 4490 5 2898 1 2804 2 3614 3 3625
8486 6.023974527803607 -2.2149568305835476 11.582118593379445 180 198 198 1.6336847009977891 8 4552 9 7164 10 13653
2066 -1.7744607326015662 1.4699096531355278 4.4496343650953021 36 33 37 2.9857316934423679 6 3669 4 4823
8487 4.270426464579403 -2.9090971386825695 12.621969154975233 0 0 0 1.0983175051723675 6 6725 8 4537 9 7171
2067 4.3669511649822681 -3.4680034386979681 12.651595549524071 172 110 89 1.324078295814302 4 4942 2 5167 5 4601
8488 6.6634009724390078 -2.0689004041119095 10.821684285134308 185 152 117 1.573024244346156 3 9334 9 7180
2068 -1.2354622139763878 1.6132840586570736 5.1683491059289803 44 31 34 2.3022328605780475 6 10845 4 4994
8489 6.7101005539229179 -2.1723203666241218 11.070637719310112 246 250 249 1.8727993869262234 8 7968 9 7188
8491 6.5380514778369481 -2.3687200398321941 11.25387079310393 42 59 67 1.8763735465206373 8 13284 9 7201
2071 3.975810707892053 -3.3297633555253898 12.953772219680763 173 114 99 1.6790370640836578 4 5424 2 5734 3 4455 9 2987
8492 5.4146798386923196 -2.8635115982271069 11.725071747752445 167 129 116 0.14062095756158932 8 4800 9 7204
2072 -1.9373080222857535 0.41690785850091994 3.9126309467156859 55 68 74 1.0501714649984406 6 1769 4 5854
8493 5.3012848017016259 -2.9043752122831084 11.73468148614147 156 115 101 1.657967450738945 2 5772 9 7205
2073 2.0604807708983417 -0.025033203711127671 10.40819527764468 123 136 155 0.46765479123579701 6 4696 4 6228
8494 4.7123074696562073 -3.3521500117967293 12.446320083826969 177 134 115 2.129210986754444 5 10258 9 7208
2074 2.3821918648916918 -0.77110560316958954 9.9757780935308951 176 119 98 1.5661039792393674 6 10214 1 9453
8495 10.425784387475099 -6.4266075502223643 28.757023688110415 27 18 21 0.19786422500927625 8 4333 9 7218
2075 -4.7116635399399565 1.1030250382722628 3.996178890417895 193 196 194 0.77593673971128585 6 5185 4 6490 7 8464
8496 6.5805948812184267 -2.8271483082141273 11.286404614012818 28 39 41 2.2572768175803071 8 8003 9 7219 10 7746
2077 -7.6071155771962333 0.5221563535308269 17.289653996399622 137 150 176 0.20925546710106657 6 10930 4 9303
8498 5.4982623476468477 -3.4485903240232108 11.772978986897717 247 245 232 0.50664259731688588 2 3013 9 7231
2079 -3.5383738809975238 -0.12509937721643755 3.7123231314484029 184 151 136 2.3655950700391726 6 6207 4 9583
8500 6.7558679086575113 -3.0230392786171429 11.129206251836019 131 101 90 2.3966181151389612 8 3716 10 2198 9 2030
2080 2.5112980384889396 -0.03544538188966017 10.19864877287838 196 223 218 0.64407196867262839 6 6329 4 9663
8501 6.3973045353497628 -3.2240551939621866 11.297747914725107 130 90 79 2.778378966306327 8 3578 9 7239 10 7801
2081 -3.3221806649265537 -0.32333793211838796 4.1549143692090658 205 146 123 1.4261225066442584 6 9981 4 9765
8502 5.0293955553970653 -3.8929290709677686 12.371271502952739 124 86 75 0.17535061205212851 8 7870 9 7240
2082 -2.4860807398798261 -1.2755841712153277 10.80967335435323 160 120 108 0.13501077934015929 4 9857 7 11029
8503 4.7895740156884381 -3.9897643009723751 12.523892368648079 142 104 88 2.0913952384675438 1 2064 8 7871 9 7241 10 13943
2083 -0.50703674750399796 -1.8456165255555075 15.872415597756895 183 135 121 0.32679241378526475 6 10236 4 9862 7 11087
8504 6.6074937175770847 -3.2672347290183725 11.477142107793474 134 103 87 2.5608690073946008 8 7774 9 7243
2084 -2.392627733677914 -2.5572452044160561 17.479219191693442 177 131 115 0.71411891535865923 6 10298 4 9883 5 10081 7 11136
8505 5.3272449910424937 -3.8928134320958243 12.485952109228029 142 99 82 1.9552312731690571 8 7842 9 7245
2085 -0.4233836459661246 -2.6081717052506912 16.03874130386421 167 120 102 0.48894350471937836 6 10370 4 9922 1 9517
8506 4.479973135950007 -4.2846643042818595 12.968975797335528 149 113 99 0.66851371900934498 8 7847 9 7246
8507 5.787030833482989 -3.7281063881033636 12.017427808376128 254 255 243 0.82586391662320724 8 2945 9 7249 10 13989
2087 2.9172993296345968 -2.0209916240590982 13.550079887114176 150 153 173 1.5911975673161201 6 10403 4 9939 5 10137 1 9571 2 9225 3 9229 9 7075
8508 4.7105367625843559 -4.1857087656093093 12.548368170622064 136 100 86 2.196539166393042 2 4609 9 7250
2088 2.5095326151706736 -2.3742820644437561 14.42358492684531 203 228 233 2.5731326772254386 4 9954 7 11306
8509 3.9736698721462842 -4.9539711447426988 14.234098742915577 78 122 197 0.83936138255280457 2 4637 8 13386 9 7257 10 7821
8510 4.9316727976094716 -4.2500437339361037 12.578062824606928 110 76 66 0.53196275858065301 8 7733 9 7259
2090 4.0415043043357439 -3.0683346688450137 12.808989526546423 191 133 106 0.55391518177525534 4 10071 5 10234 9 12557
8511 6.0478003886864169 -3.9004958117599853 12.368926927267724 56 75 107 1.6019189051171563 8 7701 9 7261
2091 4.2728012231618395 -3.127827834629993 12.96162015842766 197 135 107 2.1053014207843193 6 6734 4 10080
8512 4.9395965517171661 -4.2857763601593915 12.556857087441136 153 113 99 0.7690891696210298 8 4839 9 7262
2092 4.3280080277813546 -3.0586756098021604 12.645497986542587 197 146 125 0.52621465403173251 4 10083 5 10240
8513 6.7266693024850044 -3.3903918145617773 10.825102039082036 151 138 128 2.7465568149132764 8 7597 9 7271
2093 3.5382532177649337 -3.8576817789744218 14.543502327962972 75 73 76 1.6105245913689687 6 10639 4 10093
8514 10.694931868944083 -8.2903735483046326 29.119829604268642 19 14 11 0.83635788511223019 8 13391 9 7274
2094 4.4715860990552407 -3.3345291735586184 12.943211310071918 201 146 126 2.3229627853280199 6 10651 4 10096
8515 5.7137525854332969 -4.1710950354924412 12.085510347871642 81 91 96 0.081953005377919289 2 4025 9 7278
2096 3.6090337890314146 -3.8280045884894505 13.431460701493151 156 103 85 1.8403242235874575 6 10684 4 10118 5 10259
8517 -6.3687884750770234 1.3480793494948355 9.3618759800920177 247 254 253 2.171897188240866 8 4347 9 7389 10 11501
2097 -5.2388904587910998 0.053046396027362504 15.515585811828426 176 130 114 0.073589133035038584 6 9725 4 10339
8518 5.3363278363170865 1.9488801614492894 9.1921806951588305 21 10 12 1.578749087520986 8 7012 9 7392 10 8098
2099 4.1029136186591249 -3.273904210790175 12.933604874782992 188 140 119 2.6434050545882237 6 10636 4 10396 2 9685
8520 -10.011093646121608 -0.10125962412029306 20.658900337002358 53 61 61 0.54287613677868529 2 2453 9 7412
2100 -9.12053896386014 -1.0184548977746293 20.006207762045033 10 8 11 2.2511825222577468 4 2 5 1
8521 4.3236055079524256 -0.59223691961166625 8.5247799606830679 255 254 252 0.80901039154502441 9 7429 10 13019
2101 0.1957626195601998 -0.22425881508014167 11.532877749506669 167 191 198 1.8200913947718764 5 22 7 19 4 28
8522 3.2373197124340489 -2.6927565354578005 13.451881549761934 144 113 101 0.029431201503515754 8 7919 9 7439
2102 -9.9750303347927982 0.9394811104801416 14.165261531339329 28 18 19 1.6195951926845955 4 15 5 36
8523 5.3941839492563259 -2.0136137605706845 11.611867008326955 17 6 10 0.5208535172929839 8 13173 9 7440 10 13541
2103 4.1727754633180156 -1.9888992523891205 12.359652071017242 254 159 93 1.0350746290355912 5 37 1 27 2 55
8524 5.3726292098506043 -3.0235314774550845 11.827239820840873 163 124 107 0.046226613726791189 8 7994 9 7446
2104 2.9326495715487431 -2.2355009568128339 13.730893959767025 165 200 196 0.96801596376707888 4 42 5 39 1 34 2 70
8525 6.5202280835542057 -0.49255835890835031 10.360742641887034 148 110 97 0.4845044991517744 8 12878 9 7452 10 13107
2107 -2.6651152871570254 -0.096897034815616984 13.747295012948198 131 155 155 1.7473440909850846 4 67 5 77
8528 5.3756936463061296 -3.4751965809554828 11.86152702221076 158 119 104 1.2341339756220688 2 9691 9 7488
2108 -1.2363532833798667 -0.13280578809847796 12.731368395956411 21 17 15 1.6696586565433669 6 98 5 105 7 110 1 101
8529 3.8708563074391127 -3.8336718663711151 13.230448136165235 135 93 77 0.33126804043761626 8 13311 9 7498
2109 2.0988522600871291 -0.12504136634576854 10.325181448283168 255 254 249 0.85552904076715131 6 102 5 107
8530 6.3013323186504184 -2.5092109747654519 11.121473783446151 132 96 80 0.99902200571491062 8 13299 9 7507
8531 6.1907322045543172 -2.5079297413651944 11.179653702378406 191 207 207 0.30368118286418544 8 7980 9 7508
2111 -2.3054829123486082 1.2883964496988332 6.6423256202791219 145 97 83 1.1678879574676313 6 130 5 159
8532 6.5860706540920608 -2.3841874057234911 11.262481949122639 62 76 77 0.10109556759717954 8 13287 9 7512
2112 -3.3523188414960714 0.69989263924704137 7.644314787773336 173 213 189 0.050878689409755616 4 48 5 169
8533 6.2230205443121562 -2.1843754513893008 10.992684501477811 179 140 123 0.61126376579819297 8 13262 9 7521 10 13679
2113 -13.989169229525148 -2.3448357799877018 26.061803979341011 117 89 77 2.2164251196082447 8 562 5 185 2 284 3 203 9 598 10 1275
8534 3.2319916258756916 1.3316910248606932 1.8280801417425048 176 168 165 2.9720369262026161 8 3448 9 7522
2115 -1.3534953240816039 -2.0218515449145009 16.769100586360835 23 19 20 2.0340328676281429 6 176 5 198 7 191 1 167 2 191 8 254
8536 5.8500617576240419 -1.5637995168573604 11.143292665923951 194 158 142 0.66162257782962342 8 13131 9 7549 10 8315
2116 2.5322088479669702 -0.96526070699472555 9.9920700705341989 156 125 104 1.9746584103546712 4 195 5 201 1 184 2 272 8 372 9 624
8537 2.4207772886260184 -1.8875396283153509 13.670688999610904 201 157 141 0.59675102918289258 8 12953 9 7583
2117 0.60422547731577469 -2.1122936652571536 15.274232407352148 24 19 19 2.2509725425063181 6 179 5 202 7 196
8538 4.8414379423160128 -0.9381964829972651 8.937898783765176 22 12 11 0.34669786816023984 8 13019 9 7588
2118 4.3954623631731415 -1.6918116421582774 12.400147857802098 133 104 90 1.6636212566954325 4 110 5 204
8539 4.8393419909136428 -0.86828708549884459 8.9098548294318576 29 17 17 0.01972301822633378 8 12985 9 7593
8540 5.3028017597584514 -0.83048051767951769 9.4534664873880754 29 15 15 0.14358708264096531 8 11496 9 7596
8541 1.4394507191593138 -1.8321382150772776 14.407416171026499 158 125 118 0.72362406330533413 8 12856 9 7600
2121 3.1356299444490534 -2.626672037343166 13.581440962127081 123 134 154 2.2995731794334904 4 321 1 308 5 218
8542 -1.2051728103924695 -2.4011316168126835 17.108205445656871 50 62 66 0.15915124089700622 8 12818 9 7604
2122 0.33109759938566496 -0.7975379713043631 11.70858470221801 163 111 88 1.5252594995835689 6 187 5 224 7 307 2 422
8543 0.59334157965092682 1.3334392469893988 5.0481325717314878 67 62 66 1.578479640961056 8 10652 9 7609
2123 -0.69315658959106152 1.1009163951704517 5.4419721767609364 155 120 111 1.2371153397607146 6 239 1 256 2 371
8544 4.4050426072065783 -0.70015654633621072 8.5270796773648314 136 90 76 0.15469094863264246 8 12870 9 7618
2124 -6.0033688781399865 1.4283771126429845 9.2120012773285165 145 123 109 1.8125181779144384 6 240 5 264 1 385
8545 -0.038661977383684036 -1.8597620327856312 15.832158922311541 141 148 155 0.56544025299717404 8 12795 9 7621
2125 -3.9757836342126471 0.58728300236482966 6.7105782265946461 174 217 200 0.86756755847997402 4 164 5 269
8546 4.4271491876404063 -0.61540508008160388 8.4615868619072749 181 137 113 0.58937151275468325 2 9149 9 7624
2126 -7.3079840728062564 -1.680654796011094 21.097153151021526 23 14 15 0.54941129020913659 6 290 5 298 7 298 1 276
8547 -6.9779264670063954 0.86431338114292144 8.1166858905351891 82 84 75 1.0028027929280379 8 6973 9 7626
2128 1.0315237390330869 -0.62896748032732619 11.200749567579217 77 85 98 0.18508276462004747 4 309 5 309
8549 -6.1487994361616432 0.64910055315628634 9.322454602947067 82 73 76 0.29261668149767084 8 4423 9 7632
2131 -0.93996615946239015 -2.2353169412565901 16.667202558527396 255 255 251 1.3546287062404951 4 314 5 319 1 295 8 373 2 431 3 287 9 389
8552 5.1878877365663847 -0.20056522909330979 9.2493043373153547 35 21 21 0.058162017213973058 8 10849 9 7648
2132 -3.3269882091762173 -1.9077364490636608 18.16917343676899 27 18 19 0.61351596516568863 6 300 5 320
8553 3.4245210309056087 -0.42411985551994835 9.1211856766936474 138 99 86 0.27797372194702197 8 12671 9 7651
2133 -5.8457823289938791 1.280056009203455 9.1988084408168742 170 212 193 1.5345563698679789 4 263 5 331
8554 1.8679821293955585 0.50957364233102165 10.023886733650407 182 148 139 0.39019040833948171 8 7424 9 7655
2136 -2.6573090132658228 1.3038477924904597 6.3571478893535911 104 89 82 1.6521285099005538 6 228 5 397 7 240
8557 -1.7274639371159128 -0.77740088325066714 13.294282156287249 176 143 126 0.11946127205761256 8 12447 9 7673
8558 6.2364930037689339 0.26649513693916715 10.458254123731226 29 41 63 0.40449085778633165 8 12553 10 12796
2138 -1.790888622539945 1.1953519492516427 6.30111839834953 114 94 83 1.5191601786328846 4 259 5 412 1 384
8559 -2.1146956978943026 -0.51856061627279959 13.519656657567062 205 173 160 0.19457853813275255 8 12268 9 7689
2139 -5.058734625066001 0.71817983149381159 8.2478051368420218 163 210 188 0.55859241879120103 5 419 7 165
8560 4.3255354192538791 0.25024693817410926 8.2674552440778584 150 95 85 0.004728734085449578 8 12377 9 7702
2140 -8.217918733939845 1.0295836200484343 12.382954621096363 20 11 15 0.81854014898680294 4 270 5 420
8561 4.9982865133871455 0.39760157978420652 8.9588745476403862 29 17 17 0.18128255854379138 8 12336 9 7707 10 12611
2142 -0.421911730448986 0.3647039592848651 5.5424610001062469 75 78 79 0.86452880656640163 4 498 5 439
8563 -4.9993151225809092 -0.47051880965752124 15.592746740246298 168 130 121 0.48287370785541245 8 12069 9 7711 10 12530
2145 -10.364195098799863 -1.5557000932202998 23.392840766076816 17 14 13 1.9156370143674191 4 515 5 459 2 670 3 714 8 861 9 944 7 456
8566 4.9701167624033884 0.48387118988368943 8.9042621309603547 25 13 15 0.17655837224875498 8 12233 9 7719
2147 -2.9098515356706507 -2.1262537636374583 18.147771775226069 254 254 250 1.4967713484111289 5 474 1 451 8 584 3 438 2 424
8568 4.5463776875709927 0.42176477725833256 8.2446390102385863 30 16 16 1.2703608468085064 8 12209 9 7723
2149 4.2494035193395954 -1.9026918021275581 12.349669917699062 141 105 93 1.672990666950684 6 513 5 494 3 767 2 718
8570 5.0682829832475056 0.52023372083292707 9.0441619634463528 27 15 17 0.41743790420610122 8 12207 9 7804 10 12555
2150 4.2248780669428987 -1.9476180968106531 12.402726803989051 139 109 98 0.22864560537529455 6 1391 3 1694
8571 5.28724207898156 0.56657036738947353 9.2717380263629163 26 16 17 0.23855262667604579 8 12196 9 8048
2151 2.8005982789153068 -0.99495605692526412 9.9877399307941772 144 101 80 1.7867018350183588 4 543 5 507 1 457 2 706 3 760 8 588 10 580
8572 4.4550728134838211 1.1159155142276718 8.1734558965489921 31 17 17 0.44185150692418329 8 11652 9 8085
2154 -8.5242555780472227 1.1868562148599053 12.553833078368896 253 254 252 2.7301402601121203 4 448 5 665
8575 4.6020631222187225 1.3012369299647268 8.3749764614031701 30 17 17 0.29367392686982757 8 11520 10 9380
8576 6.2146190298615407 1.6907013651682321 10.165068312994633 5 12 18 0.91433953802494439 8 4445 9 8295
2157 -1.8221297314045801 0.40363379760829765 6.5091925506999004 147 150 142 0.3813482217875957 6 769 5 699 7 745
8578 4.9819243475753439 1.4885897187573081 8.9413707114940078 28 13 16 0.66288418127177307 8 11453 10 9483
2158 -1.6151852663101589 0.38478364535181575 6.3862599743547319 155 158 149 1.82331216242943 6 773 5 703 1 683 7 1203
8579 4.9809213850173943 1.5040664670308186 8.8087485378497217 31 16 17 0.25014607759893848 8 11420 9 8402
2159 -1.2627406704507194 0.37996345753395355 6.1208959348442757 148 151 142 0.51238774640699747 4 493 5 704
8580 3.9227871674177019 1.4609521455450383 8.391710896122639 138 91 75 0.37422249897866794 2 9556 9 8516 10 11805
2162 -3.7397207024402754 0.55805622433188018 14.423713777011077 101 73 52 0.97475618587172241 4 819 5 717 7 760 6 926
8583 4.5995255565739166 1.5966684730327931 8.4154623111992866 29 15 15 1.3554843880911021 8 11247 10 8338
2163 -6.9459541441325232 0.1865641350254994 17.053108495500531 47 53 49 0.43542688778165939 4 823 5 726
8584 5.2220015435185498 1.7776238773201296 9.0422345131199826 22 10 12 0.49288696548547306 8 11230 9 8614
2164 -7.9035534876554525 -0.30645340884600647 17.785471332011348 131 95 81 1.0287794430424262 6 800 5 735 7 774 1 703 4 839
8585 4.3671391949834231 1.6619585422398206 8.0324722779520616 36 20 20 0.85911072073684325 8 11116 9 8714 10 11607
2165 -17.837977656269853 -1.193801458612153 29.049381299984702 24 15 16 0.39425094287644064 6 804 5 738
8586 5.2688102934344681 2.0109405890570922 9.0440281907615105 23 13 14 0.83207111112635201 8 11064 9 8764
2166 -16.694610200556212 -1.2446491333826273 28.133772464481755 17 16 14 0.41322631276765898 6 809 5 739
8587 4.8203192910511437 1.9046530360865526 8.4875735565348851 29 17 17 1.9408723919973774 8 11040 9 8779 10 10005
2169 1.9892016594858746 -0.9491172100674754 10.532784621977935 185 136 113 1.1549446705802182 6 871 5 777 1 753 2 703 3 755 8 938
8590 4.6806859853240841 2.2088584967631082 8.3397752899117705 34 18 16 1.3345948469566986 8 10792 9 9012 10 11350
2177 -2.0672336090072201 1.2772478154056932 6.3881241008763343 59 53 53 2.4578763590258736 4 919 5 1029
8598 5.2978034954170674 0.60354356617419058 9.2987981362991601 28 18 19 0.059204630693241604 8 12160 9 9205 10 12535
2178 -0.42956503012425573 1.0638762013799004 5.2899753033412642 165 136 128 1.0830769030191534 4 1133 5 1034
8599 4.8660839740074593 2.6787744769728223 9.1120277999485122 27 16 17 0.0011391594656942486 3 7998 9 9224
8600 3.320816437407117 1.5422764275418182 2.793461575375261 248 247 243 0.52611562700794334 8 5347 9 9225
2180 -1.4979665994934344 0.85558566803692959 6.303522306930196 51 57 53 0.91531201203089085 4 764 5 1074
8601 4.4731063030163067 2.4248593301911652 8.0657429165557417 30 16 16 1.1775224639747508 8 10565 9 9244
8602 3.3008865460007968 1.5340526728308426 2.8407805210952168 144 139 131 0.18748172112891684 8 5400 9 9272
2183 1.0027995350495653 -2.8915480999360503 15.192919979859262 168 122 106 1.1127863234218633 6 1274 8 1400 5 1086 1 1074 2 1041 3 1083
8604 3.027623298108987 1.5735129058039747 3.0418238668731483 2 0 6 0.6210042776979332 8 2593 9 9346
2185 3.1567584006421709 -1.7853329056446647 13.227989344796029 137 102 83 1.2114092511682104 6 1286 5 1095 1 1082
8606 3.5335618798558039 1.5060538330956468 3.2605113651009461 22 1 15 1.1328122803898852 8 1725 9 9664
2187 -7.7750285880230559 0.8138661513390717 9.9462376038739944 22 17 18 0.93055691302178922 4 769 5 1104
8608 3.3849692128207756 1.5110834835950786 3.373437475381698 38 42 58 0.25230658382424448 8 3932 9 9730
8609 3.2528094390917119 1.4605789174253723 3.4723008292997828 252 251 247 0.412408539374369 8 9816 9 9927
2191 2.0749970183575037 -0.29253621314957273 10.316975434884506 253 255 252 0.42902289953585965 5 1126 1 1123
8612 4.8562270279486563 2.7150779037795174 8.4784505334588083 21 11 12 1.7900647017644569 8 6685 9 10186
2192 -1.6569534917743101 -0.73351689126201136 13.158882365398846 147 96 79 1.1426994502354768 6 1336 5 1129 7 1266 1 1131
8613 4.4878918610593646 2.4737856670986362 7.8930202341001969 36 20 20 1.2915544461845667 8 10492 9 10242
2193 -15.573172860931198 -1.0277294672908046 27.040919074728723 19 16 17 1.3702880223811356 4 845 5 1160 1 1184 2 1113 3 1579
8614 4.0734054901662766 2.4368866246895822 7.8510434233144224 20 14 18 0.44618371603472312 9 10248 10 11087
2194 -2.5343269311987484 -0.066972635145166243 13.620474393639613 184 220 219 0.37036199726525498 5 1163 1 803
8615 4.4953373245505146 2.4888104807104185 8.0578112729693974 31 17 16 1.0271339004982929 8 10519 9 10261
2195 -5.9784278229739591 0.73640707376874082 9.4828021844951191 64 83 79 0.7310480438261866 6 1197 5 1182 7 1835
8616 4.4040632263041442 2.4596225489407617 7.9585947789080684 39 26 24 1.077083284944734 8 10457 9 10262
2196 -0.75357476143867996 0.27064949532278715 12.145678483413988 138 96 82 1.1901731343202109 4 838 5 1184
8617 5.4230072013742205 0.64792125044486948 9.4439646535781208 21 12 13 0.30655415517050777 8 12145 9 10285
2197 -1.756316272017509 0.27248549588978699 6.5120311609606558 76 69 63 0.41019500254351249 6 1842 5 1199
8618 4.3560074713863903 2.4155414624910034 7.9378479710713972 35 19 19 1.5814840963494865 8 10539 9 10290 10 11135
2198 -4.7951596820094213 0.53390640815890966 15.33303355632259 128 90 71 0.90263083339981476 4 1310 5 1206 7 1206
8619 4.2881691475809216 2.3886646580622641 7.8385274368953342 29 15 14 1.1162826180283254 8 10436 9 10291
2199 -7.6871717022154824 0.71375394132458381 17.215286924772798 185 144 122 0.98086487535558187 6 1420 5 1220 7 1201
8620 4.7283955863685962 2.4578795617670539 8.1433299270150101 34 20 19 1.5618115904122809 8 10561 10 11154
2200 -3.8791112863921198 0.4222825499198995 8.2958937356363016 133 125 114 0.99141697494457537 6 3165 1 1120
8621 4.2803767536110184 2.3469077816067552 7.8073477694930054 31 19 17 1.0227376776492172 8 10566 9 10318
2201 -13.803857841628604 0.84640203403146919 19.38879100378837 21 17 16 1.4864441905982804 4 1341 1 811
8622 5.5147488394190827 2.2894418454766541 7.4985128392929736 146 145 145 1.002036460149452 8 10596 9 10332 10 11183
2202 -4.4452002032356628 0.55809796495682784 8.3841852924284428 164 169 163 2.0721866737297794 6 1221 5 1236 7 1711 4 1342 1 1063
8623 4.4295110740527832 2.3646907221995064 7.9750210310658662 35 21 20 1.0203769163014977 8 10587 9 10347
2203 -4.7805006606419616 0.58388830706352557 8.6900297360486043 158 163 156 1.6928148641154988 5 1239 7 1853 4 1345
8624 4.3021162994648821 2.32915774875406 7.8676511660225392 35 19 19 1.5590155294205188 8 10588 9 10349 10 11181
8625 4.2650317598087621 2.3136339592693869 7.8158795121667985 37 22 19 1.3932377416869253 8 10589 9 10353 10 10505
2205 -0.57379037472196159 0.80052215975127805 7.7018611579945233 175 206 188 2.1698008243280862 6 924 5 1246
8626 1.747835936301636 1.5247327189232998 5.0610105513369037 251 253 241 0.42714667245421428 8 6654 9 10355
2206 -4.9105638455304792 0.66936677203727524 8.7110582934877385 76 92 84 0.74444001645089442 6 1205 5 1249
8627 4.6382352311162904 2.4212062925682689 8.2734350613071843 34 20 19 1.9372673073363982 8 10609 9 10369 10 11198
2207 -5.2617878473075983 0.68976453175911556 8.9786995990512963 74 95 88 0.70564766891705899 6 1204 5 1251
8628 4.3383547746542348 2.3271165879833324 7.9865219820536106 32 16 16 0.35693676093928917 9 10378 10 11200
2208 -5.619835477907734 0.71180790951412398 9.2305222335936783 74 93 87 1.2979031180754352 6 1200 5 1252 7 1168
8629 4.2855041692806957 2.2934674548907883 7.8580900663504192 37 21 21 1.5097438422582632 8 6553 9 10379 10 11202
2209 -7.0024960995874723 0.83852598488063945 9.3907657403949187 34 24 25 2.2019533184013476 4 767 5 1267
8630 4.8150863428260218 2.4458491332089491 8.4499326150057641 32 18 18 1.16658813455859 8 10629 9 10389
8631 4.7212583972913462 2.4153195297567334 8.3599342141398729 26 14 12 1.3927252833134798 8 10630 9 10390 10 11221
2211 3.6633527897121065 -4.0740355303972393 13.432291025673193 95 63 52 1.1249722588006572 4 1436 5 1373 2 1182 3 1690
8632 4.6651479061772925 2.3959575949545178 8.2937508991530713 31 15 15 2.2732349472751285 8 6701 9 10391 10 11222
2212 3.5583672460701217 -4.1898187193263468 14.528117374516039 63 104 193 1.6133796720032032 6 1241 5 1412 1 1517
8633 4.5620207871044283 2.3591647835407268 8.1816836163858291 21 12 13 1.4258958947691169 8 10631 9 10394 10 11223
2213 -1.6622906585216162 1.2492170751539702 5.6337790500702356 92 74 63 0.88274291275536054 6 1694 5 1459
8634 4.3374397876264803 2.277946361899033 7.9081132517320896 32 17 17 0.86148549870061608 8 10634 9 10400
2214 -2.2265929748485083 1.1880752782144615 6.6283958445331663 117 80 62 1.0003063407677177 6 1727 5 1544 7 1780
8635 4.3162437507165494 2.2645281069151619 7.8756138780314844 34 18 18 2.0898890471879694 8 10636 9 10401 10 10438 3 9500
2215 -7.0772897355272253 1.0078702022355153 9.354360555492482 58 59 23 0.98994254624610667 4 1717 5 1575
8636 4.7431061000944377 2.3897606067039039 8.3713312495487671 30 18 17 1.0808780471594126 8 10653 9 10410
2216 -7.4070236665453359 0.8275113051361086 8.3662913941201822 0 3 0 0.5606362513068327 4 1718 5 1576
8637 3.1888380762313711 1.4408752736442711 2.9505594297809621 35 2 12 2.7430770716787203 8 2636 9 10411
2217 -5.7382838082219143 0.70025986793021289 9.2030526015015521 89 104 97 1.1859627778705477 6 1780 5 1593 7 2197
8638 0.15836136453824684 0.80871694590822829 2.6528728793864738 17 12 15 1.2491741435662296 8 6642 9 10415
2218 -5.3903485979683596 0.68194450304296395 8.9632104103140691 85 104 98 1.8407320577561161 6 1782 5 1594 7 10033
8639 4.4553271822451928 2.2908377351732616 8.0595166756574432 31 17 14 1.4631970364107021 8 6722 9 10420 10 11243
2219 -3.3592306809753292 0.6308476374663291 7.6225348150548253 170 210 186 0.1204436510279959 6 1789 5 1598
8640 4.7887796679947687 2.3744944285368041 8.4272155257242893 31 17 17 0.98203579496942539 8 10674 9 10430
8641 4.7611417747175437 2.37464123363445 8.4437078235992615 28 13 13 1.5201205932818034 8 6730 9 10431 10 11263
2221 -5.8975091546314307 0.43985873975051232 9.3559083583703639 26 16 15 0.63731167707834757 5 1618 7 1188
8642 1.4091537778318548 1.3634867429612052 4.8241335044760438 242 250 239 1.0745582562019145 8 10616 9 10432
2222 -17.007562166541348 0.91210768645712448 24.236773517717058 243 246 242 0.70467024768171749 6 1809 5 1619
8643 4.5978601983561775 2.304200637767285 8.2012249231824619 34 19 19 0.93289866381728781 8 6542 9 10434
8644 4.2451341037494501 2.193374323597117 7.8676387529400094 36 21 17 0.44836138698209144 9 10439 10 11278
2225 2.9136824299110784 -3.0047879847990964 13.68969492041029 160 125 106 0.93111351846202728 4 1734 5 1624 2 1671
8646 4.8399396937687094 2.3624736340136461 8.4964530694541285 34 18 19 1.2623238414608675 8 10703 9 10449
2226 -4.9422225099270074 0.38026468381309075 8.5945372846553738 28 17 16 1.7966245405379129 6 1374 5 1626
8647 4.7502954926376342 2.3275855381393695 8.3873693461643679 30 14 14 0.98931403548623753 8 10705 9 10450
2227 -10.921456218347403 0.061957925544615648 19.9528426243712 100 108 110 2.2855115277689904 6 1847 5 1654 2 2436
8648 4.717936050436923 2.3157104388207181 8.3532096355179313 31 15 15 1.6591153719600991 8 6743 9 10452 10 11293
2228 -3.8469774256603153 0.27798745116124196 14.706351557593978 55 61 59 1.4074390064585867 6 1857 5 1660 7 1913 4 1791 1 2551
8649 4.6533448843929177 2.2991788984015633 8.302081874925058 33 17 17 1.5126327205898942 8 10706 9 10453 10 11294
2229 -18.262838019121357 -0.93830653281707344 29.108070766488922 250 251 247 1.4012061406823011 6 1879 5 1684 7 1223 1 2557
8650 4.3296808705723384 2.1757231425554311 7.8935335214298732 36 16 17 0.9290564650466786 8 6753 9 10464
2231 -18.24972351081124 -1.3076204705265824 29.217597023837552 249 250 250 1.5761475756453016 6 1891 5 1691 7 1228 1 2573 4 1274
8652 4.3149079403513539 2.1455155154067596 7.9215940629473316 32 16 16 1.1549023891586467 8 6771 9 10474 10 11315
2232 1.6837646969464211 0.21209711359262579 10.430371155077102 200 166 141 1.2539479071706032 4 1017 5 1692
8653 4.5887389694996434 2.2287708767614602 8.329345238088381 36 20 20 0.78568952798758607 3 8100 9 10479 10 11331
8654 4.3705437188344263 2.1347341033925162 7.9899218145946858 42 27 24 1.1239910728400655 8 6531 9 10483 10 11334
2234 -0.62272381843146329 -0.068254955819070623 12.263734518873399 103 124 151 1.5122541082297687 5 1703 1 2614
8655 4.7407141300580333 2.226575054520989 8.3840131040266748 35 21 20 0.70157250907090885 8 10791 9 10492
2235 0.069617802566558445 -0.12646040819688448 11.792763751432268 98 122 148 1.2880447939196271 6 1916 5 1706 7 1252 1 798 2 1576
8656 4.8881886580857161 2.2519574131098534 8.5679747445668575 26 14 14 0.93911862704564575 8 6813 9 10499
2236 -2.0843936569139663 -0.52812470311856263 13.486195630218807 106 74 54 0.78290725733526867 6 1928 5 1719
8657 4.7599717318797037 2.2036864331601067 8.4194746239174822 29 15 14 0.93865146849588466 8 6815 9 10503
8658 4.6922538574279944 2.1755720837105752 8.329083214521626 43 28 26 0.87418801580781091 8 10815 9 10510
2238 0.89272075848090304 -0.43655280429647814 11.331617253627467 255 255 255 1.2339591607527243 4 1875 6 1947 5 1733 7 1991 1 1709 2 1666 3 2609 8 2142 9 3148 10 3040
8659 4.4717868322558774 2.1088214052185053 8.1217795053910642 37 23 22 1.2266317864786966 8 6508 9 10518 10 11361
2239 0.9423044221396305 -0.58135981663112002 11.680433467505015 92 114 137 1.9125346976344777 6 1960 5 1741 7 1270 1 1716
8660 4.2625558676747621 2.040584978523095 7.913612809200643 25 11 11 0.81309569262362891 3 8156 9 10525 10 11363
2240 2.3693278436744976 -0.51224384438206172 9.9644965823364604 255 255 252 2.0604586152257331 4 1224 5 1750 1 1731 2 1614 8 2167 9 2058 10 3059
8661 4.4256811520298331 2.0576782201190804 8.0429541175735704 37 23 20 0.90835896722996601 8 10843 9 10533
2241 -11.17781766153815 -3.1904843328716659 26.544703260362205 138 162 199 0.69642105169112378 6 1187 5 1754 7 1275
8662 4.7681101320010919 2.1537744973812258 8.4750698280623933 31 15 15 1.2960177525086392 8 6857 9 10537 10 11389
2242 -2.9168898284892606 -1.7501867508319797 17.912074718049098 254 255 249 0.7947258708995083 6 1432 5 1756 7 1280
8663 0.1272155383811745 1.100243367379184 4.7047969366372744 131 94 85 0.60142652180083034 8 4307 9 10541
2243 2.8192286460574332 -0.54794053407709753 9.911438872032944 253 254 254 1.4301596775070415 4 1897 5 1757 1 1735 8 2176 9 2067 10 2020
8664 4.3819166542706034 2.010963140475643 7.9932331234007323 33 17 17 0.96689017342310246 8 6860 9 10550 10 11396
8665 4.6606746122984246 2.0766306568973816 8.3193868099672468 30 14 15 1.4958257095270451 8 6877 9 10566 10 11416
8666 0.22912504116150939 1.0572992867452531 4.6233260448923579 139 107 97 0.43223779643166038 8 6817 9 10567
8667 0.11288367100916417 1.0715135572446144 4.7254968995304703 143 109 101 0.67822403285882538 8 6819 9 10569
2248 -0.22135699166561359 -3.0537122249817217 16.054860917069195 146 143 127 1.1145964468735785 6 2042 8 2213 7 2083 5 1792 1 1767 3 1693
8669 -5.2627622736398187 1.4009291296118458 7.6070840820410668 96 99 100 0.38931082147257673 8 10801 9 10583
2249 3.6227592403216469 -2.0814642689300293 12.766427319511234 164 119 98 1.2125129763455387 4 1941 5 1793 1 1774 8 2224
8670 4.1578545463883723 1.9417847179257002 7.9384647181914767 195 127 92 0.15362416337217324 2 7923 9 10587
2251 0.8612740695471357 -3.1014172690658368 15.229320257954665 135 122 114 1.1332880028894192 4 1944 8 1441 5 1795 1 1777 2 1662 3 1698
8672 4.3849369385150512 1.9575402931153645 8.0509955695272666 29 18 16 1.8511569889413788 8 10943 9 10602 10 10120
2253 1.279552405377999 -3.1308754833299495 14.926838263461594 132 122 113 0.907904177875547 6 1392 5 1799 1 1779
8674 4.7276209609661022 2.0402352553781591 8.4222879631302145 39 22 22 1.2499738422025917 8 6896 9 10613 10 11448
2254 0.87519953408181939 -1.8971591361985829 15.288986340840829 120 141 162 1.3690970191834735 4 1912 5 1800 7 2046 1 2742
8675 4.5357411667985827 1.9740268821489688 8.2050635664956566 33 15 15 1.036152059527067 8 6897 9 10620 10 11453
8676 4.379606635982098 1.9148719972851589 8.0034616554823543 31 15 16 0.83880255973513385 8 10962 9 10631
2256 -14.111340514802052 0.033441876896593177 22.098768147456745 17 7 8 0.71923907798654607 6 2738 5 1824 1 2518
8677 4.3456786718722178 1.899564877410433 7.9524649958624591 35 21 20 0.64729226784745642 8 10963 9 10633
2257 -2.0055845376583314 1.3146780318491222 6.457431463501468 43 24 27 0.62229484823933445 4 3780 5 1833
8678 0.10810533199679766 1.0100621950661106 4.7446392724762338 126 88 77 0.71611638607947081 8 4873 9 10635
8679 4.5819815888044673 1.9684378414553023 8.3267001382186017 35 17 17 1.1187408011922277 3 8278 9 10642 10 11484
2259 -3.200428566978343 -2.6089952212859409 18.412508269822293 198 141 118 1.1852822952362174 6 6935 5 2063 2 3669
8680 5.0188743083877592 2.0792304866677442 8.7422819411058192 26 14 16 1.0296674680585161 8 6914 9 10649
2260 -1.678587635812248 1.3107633911489487 5.6542993428190638 251 235 221 1.5297065572971593 6 2505 5 2352 7 2693
8681 -7.0332943669299404 1.1274648577949722 7.2698380787625663 13 8 5 0.85720407119262698 8 10839 9 10650
2261 -1.7870941753191194 1.3120540935506677 5.6905881494404831 24 21 18 0.52800346895283667 4 1986 5 2353
8682 4.9561135962735259 2.0626089435380006 8.6931031813059754 29 15 15 0.90737593145122797 8 6921 9 10651
2263 -0.3423823402787905 1.1450331048776397 5.2162323639247949 69 51 47 1.5996038915633159 4 1675 5 2386 1 2365
8684 -7.3366836170320271 1.1150446303604848 7.3336647374218602 30 19 17 1.3357455704216659 8 6844 9 10655 10 11378
8685 4.8621629948936391 2.0237318128657584 8.574196506318545 30 16 16 1.3909275971329322 8 6925 9 10658 10 10073
2265 -4.9924518423484958 2.4662989022453043 12.061696370900535 9 10 14 0.86289863805589051 6 2544 5 2400
8686 4.6679803713217893 1.9535331193811587 8.3457197178349443 36 20 20 0.88918218802138704 8 10997 9 10664
2266 -1.5309353259534288 1.2444583891910121 6.0780516915209333 26 17 18 0.085660626542977458 4 2506 5 2405
8687 5.1275434450222592 2.0635679397433906 8.9256112855838392 24 12 14 1.4917755003899327 8 6943 9 10676 10 11519
2267 3.6567655348691042 -4.2829027368906454 13.421547774379876 170 162 155 0.16060227132167768 5 2406 4 2774
8688 4.1550127891167872 1.8089308737608778 7.9280513668220447 171 106 78 0.84854003547542145 8 11010 9 10677 10 11509
2268 -1.9603311148180103 1.1962671379933063 6.4136405349304368 148 131 124 0.84093127128525336 4 1683 5 2419 1 2376
8689 -7.2664300561144959 1.1374012977506762 7.7862234596292073 91 99 60 0.21135502197090991 8 10903 9 10680
2269 -8.4129014918388272 1.8372702753418806 11.076094865435417 20 15 12 0.11410216301367127 6 2554 5 2421
8690 4.5555097550352297 1.8815048812785695 8.2196321221366624 34 18 18 1.0841581263072679 8 6944 9 10681 10 11516
2270 -0.3733505960125536 1.0106800760258887 5.3639926968852656 239 240 235 0.18051492597980634 4 1694 5 2429
8691 4.0203967895284878 1.8341005163951252 8.1679245803428113 44 44 46 1.5752470264835219 8 3343 9 10686
2271 -2.7608269073306522 1.1824062519479466 6.9144150367390802 208 182 165 1.8805799694925152 6 2582 7 2776 3 5260 2 3498
8692 4.3948735871670292 1.8295367836160137 8.0579762626108824 27 15 16 0.56823713514738472 8 6948 9 10690
2272 -5.7193690234831775 1.2943650197877483 9.0384485670528321 241 239 234 0.73798986614045414 4 2545 5 2460
8693 4.7679867875552606 1.9297579562551643 8.4909322964695253 31 15 16 1.2398768851640496 8 6383 9 10691 10 11530
2273 -1.5613979053918452 0.95490334726245629 6.2754411532811654 175 211 197 0.7583591569194521 4 1172 5 2465
8694 0.20784899084286301 0.88461170684985646 4.7085612909703718 130 103 91 0.69231141580805589 8 6937 9 10713
8695 4.9266849091718461 1.8910908660386441 8.6743377232502201 29 17 19 1.4159223527769937 8 6987 9 10730 10 11574
2275 -7.290833913284871 0.98272759503943319 8.5209263024166741 2 4 0 1.9623298703795746 4 1712 5 2468
8696 5.2925963566543404 1.990799562650815 9.1015321848552801 26 14 18 0.86821558703488588 8 11076 9 10731
2277 3.2713140759568358 -4.0528401320036274 15.067410965895808 145 137 126 1.4087883318719001 4 2998 5 2509 1 2744
8698 4.1864536168971336 1.6902131402851159 7.9623745510113304 183 113 85 0.64892872165187232 8 11079 9 10742 10 9967
2278 -2.8617712566255795 1.0248851046231313 9.9971934909915774 54 68 64 0.72025705229421577 4 1741 5 2510
8699 4.3441549834870754 1.6874217890373957 8.0195988316628544 33 15 15 0.75843104696429453 8 6278 9 10758 10 11592
2279 -6.0885317148208591 0.72343649343327265 9.4593347126076264 85 102 98 0.56018004605622762 6 2657 5 2512 7 2851
8700 4.3040542523815244 1.6708833111533621 7.9622932121344743 35 19 19 0.032840413641206184 3 8344 9 10760
2280 -9.3296803153445271 0.92957242245530458 13.346061220763776 41 42 44 1.0316123312737182 4 1739 5 2514
8701 5.082751911149435 1.840924841480891 8.621441044891121 25 14 16 1.7876710282753652 8 11104 10 11605
2281 3.1583962089530386 -4.1495613958103936 15.66196769746754 135 123 109 0.11179902920431953 6 3081 2 3555
8702 4.1224067885544899 1.6749439571169877 8.0664714118534793 181 120 99 1.7001370717514304 2 8105 8 6277 9 10764
8703 4.6221399890698684 1.7507688508755177 8.3231553543269623 34 17 17 1.2561749471038572 8 11107 9 10765 10 11600
2283 -10.331174583953617 0.50013617832271762 11.726748028217122 50 51 34 0.19133857736005799 4 2615 5 2537
8704 4.9647542241295683 1.8429898599350341 8.7231025087778953 31 12 14 1.0981682365006866 8 11109 9 10766 10 11606
8705 4.8708047357397897 1.8175750822752266 8.6124326727405709 43 28 28 0.082895048083130168 8 7010 9 10767
2285 -1.484756884474995 0.46029807581674004 6.4160630847740796 30 35 38 0.4603512547927463 5 2555 7 6439
8706 4.0889207907830221 1.6600908529251346 8.023290045615866 8 6 7 1.0886792187949472 8 6271 9 10768 10 11596
2286 -10.689266255676786 0.73595502176116023 19.552311612970691 253 253 251 0.56642435323198692 6 4253 5 2570 7 3520 1 5587
8707 4.6870983474613324 1.7443550060946467 8.4176039516796575 32 18 17 0.8129004362276705 8 6270 9 10781 10 11618
2287 -14.830707982837064 0.27584293215686695 22.646089796188299 92 94 100 0.09555331543722255 5 2600 7 4757
8708 4.9205968187935882 1.7979477552587679 8.6944678596751519 26 11 12 0.91385270448467237 8 11133 9 10786 10 11636
2288 -1.9322513614119352 0.28271919239404347 6.6664806000613224 75 71 67 1.1636667008248018 6 2734 5 2603
8709 4.4798594090969992 1.6734241993793915 8.189791061730439 34 19 19 0.45041272651523451 8 7026 9 10790 10 11631
2289 -3.3572662562054911 0.39909277566306478 14.037708757240891 157 114 96 0.40421101111646818 6 1850 5 2623
8710 4.4394703732803036 1.6531068115576131 8.1181863504072798 36 20 21 0.82617885523314849 8 11140 9 10802 10 11637
2290 -4.4152452975686298 0.15588280467687782 15.002278626256405 132 93 76 2.2135901506947206 4 2719 5 2643 7 2959
8711 5.0350401963425764 1.8069896529276575 8.8270352570916764 23 11 13 0.97959200817407133 8 7037 9 10805 10 6855
2291 -11.138367947854176 -0.4077864739075428 19.850340221384617 152 145 135 0.5463121069830883 6 1873 2 1701
8712 -7.957662541059487 0.78190824778244639 7.8219394384220005 10 11 3 0.91377161409290542 8 6957 9 10807 10 11538
2292 -1.4757442965156544 0.03293871476957299 12.680065036307315 150 119 101 1.2328527995603158 6 2807 5 2684 7 3000
8713 5.0032873909203186 1.795305687279432 8.7875941443789056 31 17 17 1.1793819791009599 8 6259 9 10808 10 11657
2293 -9.6110089365428966 -0.56589969363890924 18.3691796749827 15 11 10 1.2211738034891639 6 2800 5 2689
8714 4.1165950859967877 1.6010991254598945 8.0273444795933777 164 103 85 0.57058655317883755 8 7033 9 10810
2294 4.3924725102118156 -2.8487575469131081 12.575070412796601 103 59 39 1.8507929509562482 5 2690 2 2582 3 2762
8715 -6.8014923575763691 0.88414827108533178 8.0403666829004177 16 17 11 0.045035289996538844 8 11047 9 10811
2295 3.8912151204943686 -3.0218316248381401 13.091510175102348 121 80 62 1.3940800912197027 6 3056 5 2692
8716 -7.3500971767457921 0.73191915226325044 7.4441874471352278 98 100 87 1.8097466917918463 8 6962 9 10818
8717 4.4318728191034866 1.5998042817802494 7.9848779759888409 36 18 18 1.8413005185293441 3 8381 10 11661
2297 -8.4411656533791923 -0.66820304701331656 18.093043908019141 17 9 13 1.3966515592267355 5 2706 7 2997 2 2498
8718 4.893994795957413 1.7246124073011553 8.6733836610172776 28 15 15 0.74770931190183332 8 11181 9 10832 10 11682
2298 -6.0138549822519263 -0.48144958560598788 16.567122651081998 116 70 55 0.53303582012411121 6 2821 7 3003 1 802
8719 4.0519018506851623 1.5305455454260466 7.9642193597533089 171 105 91 0.34409914495570693 8 11192 9 10844
2299 -4.2443630140851738 -0.37523455996814203 14.872198530137601 161 123 108 0.62982837975890271 6 2826 5 2711
8720 3.8581339983681491 1.5902770313025285 8.3957520828249574 167 105 90 0.56258957196375547 2 9551 9 10845
8721 4.0785409815015772 1.5491916244818298 8.075744840955128 165 99 83 0.39928773550078112 8 11195 9 10847
2301 -13.109525892354078 -1.3529044127290033 25.1948910917259 106 86 75 1.0585914398149201 4 2782 5 2725 1 2598 3 3792 9 6813 10 7204
8722 4.6331782576471632 1.6287156641782832 8.3475413590800347 31 17 17 0.52201440268461485 8 11204 9 10848
8723 4.9383507668502267 1.7101540898015009 8.729907388215782 28 16 16 0.75557798482106098 8 7065 9 10850 10 11700
2303 2.6484467085770889 0.057626341290512972 9.7498961757463665 184 148 132 1.8155439901862331 4 2816 5 2743 1 2658
8724 4.8159701940656037 1.6641960820832609 8.5716301486002422 26 16 15 0.86754932342958513 8 11235 9 10858 10 11703
2304 -3.4119789898256254 -0.6305284611878158 14.27353739136348 179 136 117 1.3553689558393431 6 2865 7 3047 2 2543 3 3776
8725 5.0670119649837391 1.7233079356818004 8.8837639798125743 15 9 11 1.016803442873081 8 11239 9 10861 10 11718
8726 4.1383793007121721 1.5084733811861208 8.0202356131128703 175 113 90 0.43201901264940867 8 7075 9 10867
8727 4.8365282461322447 1.640823838396696 8.6181482037338331 29 19 18 0.83695231895370348 8 7087 9 10879 10 11740
8728 4.490789424559944 1.54736044094542 8.1970022833908249 30 18 18 0.59881447056167458 8 7086 9 10881
