# 3D point list with one line of data per point:
#   POINT3D_ID, X, Y, Z, R, G, B, ERROR, TRACK[] as (IMAGE_ID, POINT2D_IDX)
# Number of points: 426, mean track length: 2.547366257962874
7111 2.5235124061705818 0.066837108784611424 12.903023450151204 212 240 241 1.8661170087282697 3 1719 4 966 6 646
691 -5.0381265574614336 -2.1231776046694315 4.3360124447572632 121 92 85 1.468109168426261 1 10780 3 6661
13544 1.4836186558924134 2.0273490195665942 7.4941242637962233 211 212 204 1.5531036910845839 7 8091 10 7426
7112 -0.15194646230136899 -0.066307747693672703 9.9365092139004307 166 167 153 0.95633009944372127 3 1734 4 971
692 -4.8333398087404023 -2.3358626740348232 4.6262833456278125 116 81 72 1.2158512439966012 5 11006 1 10846 2 11277 3 6409
13545 2.4773335582079978 2.2446886060029363 8.2139475453905639 228 216 200 0.44974817332150729 8 8454 9 4664
7113 -3.0619762152161707 1.3396611675274708 5.985054917637874 205 174 130 0.71599091733802323 3 1012 4 978
693 -5.1800865115192058 -2.2236657585102519 4.1370011054923337 23 14 18 0.40320939699015268 1 10844 2 11281 5 11012
13546 4.9744630969542545 1.8975299184360974 7.139307638113408 194 186 175 1.6103903829594894 7 4856 9 4665 10 1895
694 -5.7919712332335456 -2.0313878690288547 3.3340052618848297 129 105 95 0.66522967670889643 5 11031 1 10835 2 11284
7115 -0.42878844958434736 -0.74339918463388477 9.5234473297802094 188 168 153 0.8172291124750648 3 1955 4 999
695 -5.1055741653460514 -2.351479162389849 4.2824955100723452 192 157 145 0.63127555846140426 5 11047 1 10889 2 11327
7116 -3.0676647161877817 -0.55034822681428552 6.5196371742233223 47 70 102 2.4295387637186696 3 4065 4 1001
696 -5.7188221837132147 -2.204114378719455 3.469341561896754 197 155 139 0.48878210943819855 5 11084 1 10909 2 11345
13549 1.3519706684109858 1.9553659428279628 7.4286299165803156 232 235 228 0.42337444422073955 7 8134 9 4688
7117 0.14851826555621539 -1.0649013616938907 10.232344958969179 159 120 106 0.11479895423783577 3 1817 4 1010
697 -5.266661783042542 -2.4732107936904915 4.0706248815554611 174 109 87 0.55036485389868184 5 11112 1 10956 2 11388
13550 1.6598596951887623 2.0613467139207984 7.7673444647131165 234 235 227 0.58269481115932564 7 8124 9 4689 10 4443
7118 -2.7124772148661807 -0.91203409307086525 6.785092968784741 162 161 158 1.2859583201292983 3 1189 4 1019 6 675
700 -4.7042606819387665 -0.21365823048818117 4.579786931087189 214 199 180 2.0609052021571186 1 13 2 10
13553 1.2031736022486521 1.9823886141393634 7.5771220513304662 22 23 25 1.1657376453873192 7 6138 9 4701 10 6495
701 -5.8806638518618879 -1.2912110763313969 2.905517865375475 50 77 120 0.41706121540149577 1 19 2 12
7122 -3.6470933436385811 1.1209288325022362 5.4173932289259126 20 25 29 0.45093492250156653 3 1197 4 1054
703 -4.8371812190744405 -1.9558793823993483 4.4309075099308917 173 135 119 0.63955125437451832 1 18 2 18
13556 5.2221137530585366 1.9817543555309549 7.6844853484409734 220 212 199 0.033917132589124065 7 8108 12 3810
7124 -3.4340405932972589 -0.44100236012875649 6.0031747213418809 190 162 122 0.25477505225106484 3 1796 4 1057
704 -5.4905203499088895 -1.2852283287648849 3.5747480347527891 168 130 113 1.9285193178711291 5 8 2 19
13557 4.3441063083627292 2.1596989788195775 8.2770053826168724 208 195 178 2.1663130528943353 7 8113 10 1928
705 -1.1181433454313037 -1.3817180516602017 9.0510125243151691 162 132 121 2.4577698466109021 1 22 2 22
13558 3.998596275761809 2.0960915324702896 8.1405202046929031 209 198 180 1.0477008706366315 7 4910 10 2838
7126 0.094178880964684783 1.5743460360928676 4.3563158228933263 23 24 26 1.2232121386425838 3 1447 6 822
713 -4.2892522376176974 1.2238133316754964 4.599494792800094 236 190 156 1.6821822207901096 2 47 1 49 5 30
13566 5.472597693144766 2.1979835221241197 8.7951023024336674 220 212 201 0.12666236192051178 7 4928 9 4782
7134 0.56532219458342403 1.1380136091457422 1.9279497702560435 139 133 119 2.0631042432451734 3 2312 4 1207
714 -4.5594980444355722 0.87235174275281946 4.3245130502242795 50 45 41 2.1819986285822921 1 52 2 48
7135 6.3815369380393303 4.8208642770133689 9.6412558000656379 199 189 177 1.2205405113114205 3 3228 4 1208
718 -5.47082479631338 -2.4174646661500132 3.9591328042154732 196 147 130 1.3883129774716174 1 70 2 60
13571 1.6883948248859131 1.9978915598805338 8.375493307911972 215 215 205 1.5549052474623537 7 8269 9 4828 11 2883
719 -2.0612335306124825 1.8820393109685343 4.9756377941714192 196 180 164 2.4174979641899235 1 107 2 67
7140 -1.3527073135274295 1.3455181045844178 2.5397629977430669 183 168 149 1.7783129656141465 3 5216 4 1234
723 -3.0722246669731623 1.4413453479118941 6.0095218263996379 233 208 177 1.4235587685262765 1 71 5 71 2 72 3 45 4 27
13576 6.4106745680818005 2.4223913399407642 10.18455980239774 207 199 186 0.4554188071429407 7 8240 12 1129
724 -4.886482860896181 0.79218942038511109 3.8349459076672674 43 42 38 1.0986469455312533 1 95 2 73
13577 1.6328978416000037 1.9378965181285266 8.3393596692947316 144 138 131 0.74317456388465331 7 8297 9 4849 10 2914
7145 0.21671086935161354 1.2373755003705125 2.5217614901983376 220 210 198 1.0947723345350076 3 2348 4 1274
725 -2.9296525671783655 0.63340567580315654 6.3227697306798474 25 26 31 1.8144438961408031 1 77 5 79 2 75
13578 1.5722025768086485 1.9132033884010431 8.2574386600416485 193 194 186 0.72012938244106151 7 8300 9 4854
7146 0.92240508948204236 1.2334684142178374 2.6757950482246526 123 107 91 0.77033657851837745 3 2379 4 1295
726 -5.7803586497354287 0.15646730198648656 2.9200741972313482 6 9 14 1.5983166617522357 5 80 2 76
13579 -0.64086814434880679 2.0492358316027492 8.8142548642777907 48 56 59 0.14940882738290817 7 5029 9 4860
7147 0.27299666254673682 1.3045393432139663 2.8870724805480883 220 212 199 2.1012176531531597 3 2376 4 1297
727 -6.5296178469201003 0.022716281248318402 1.9224507032547857 228 255 226 0.32795434610611718 1 78 2 77
13580 6.8117727031342925 2.3092403220169002 9.8568225511031979 229 220 205 1.0744055996254318 7 8247 9 4862 10 4635 11 6345
7148 0.5164078311780036 1.3668018158052908 3.1972224157722895 236 226 214 1.3623772648064292 3 2386 4 1310
728 1.1673635996132536 0.30507789259856344 10.7045877328377 252 243 219 0.076993870186951058 3 52 10 12
13581 4.9599073530063409 2.5353808684973247 10.694688471329679 4 7 16 1.1561754415995167 8 8613 12 2555
7149 0.94517957583840184 1.2807582042735834 2.9932161721956234 203 193 181 0.036376170742862771 3 1433 4 1312
729 -0.53426365949050136 -0.32471831910136761 9.5820812965652173 27 31 40 0.040100385172433556 1 81 2 81
13582 1.7928849947017387 1.9428240500926954 8.5014493156025246 218 218 208 0.66853793464855937 7 8313 9 4870
7150 5.429390280134907 2.0967939852637305 8.5483514671517167 223 216 200 1.4210048097087664 3 1520 4 1323
730 -3.9436384555173447 -0.86019445865534383 5.5961537767128533 175 139 126 0.39553644303723307 1 142 4 42
13583 -0.36055539211390042 2.0490610769296249 8.942920904211519 51 46 46 0.0064507965307026146 7 5037 9 4876
7151 -0.60822250331056948 1.7597906389730782 6.8045943602512606 214 211 203 1.5128191008363745 3 2021 4 1333 6 1391
731 -5.8500137427601429 -0.81667851120827784 2.8528664575298857 209 161 149 1.7769937410407444 5 89 2 85
7152 1.2315384042849244 1.3358811452320962 3.3346978748517326 215 207 194 1.3596743542038086 3 1440 4 1337
733 -4.7815781486740132 -1.2269631351280059 4.4845971165569418 207 231 231 0.11367461421721853 1 87 2 87
13586 -0.35359090186239844 2.0010219225495223 8.9336405276982251 66 52 50 0.32228897418946734 7 5049 9 4893
7154 -2.67413479281874 1.8033550512422729 4.9258590538730704 207 207 197 0.60646594529853781 3 2404 4 1352
738 -4.0221902759708374 1.4434915445852639 4.6395718875408836 37 29 26 2.3040359531107502 5 67 2 101 1 115 3 40
13591 7.117585014440543 2.486172126373563 11.236519372629548 237 242 245 1.4410601900288622 9 4910 10 7842 11 4633 7 5025 12 4122
7159 -1.7005231455048713 1.9270475380508547 6.0226214650006442 180 182 169 0.70462115207661369 3 1984 4 1394
742 -6.0224157346976019 0.47183497102047955 2.4842664330846125 231 171 148 0.75449928339847072 5 49 2 107
13595 0.95157690065542411 2.1650009686047942 10.339299590928942 21 20 23 1.5680541337186704 7 5081 9 4934 10 2971 11 2970 12 2609
7163 -2.4046411171716517 1.7503627948722875 6.6743258027400465 88 78 66 0.70622973774434794 3 2493 4 1442 6 1380
743 -4.9826589764387927 0.43905154534401369 4.018400210849757 120 144 161 2.0094960632500007 5 124 2 109
13596 1.4502733699647352 2.3095657304801733 10.999883072437079 26 47 68 0.56245498107335345 7 5077 9 4937
7164 -3.2330315324476957 1.4534378525487157 5.7786362734613235 122 103 72 0.082765617905164235 3 2517 4 1455
744 -4.2827280212956795 0.22519956746259356 4.7982901204209183 202 186 168 0.51019830686713086 1 129 2 112
13597 1.0394765004859039 2.1770395760863308 10.441744784802696 26 16 21 1.3520543030010477 7 5084 9 4939 10 2974 11 2976 12 2614
7165 -2.2412773842555018 1.6953496018031342 6.8659386708920893 71 62 47 0.84830879529943781 3 2516 4 1459 6 1397
745 3.4586601216127182 0.32608966270380768 13.393177193078319 35 37 52 0.97686676875726652 1 132 4 299
13598 1.7689801063834849 2.3763622725231182 11.333799356166262 0 2 11 2.4171776623366057 7 3220 9 4940 11 7850
7166 -3.1279611808348484 1.4446038227856255 5.8864799171278674 255 250 208 0.062977932431356742 3 2535 4 1462
747 0.68253577829152079 -0.10086315140909785 10.818438402602181 30 32 43 1.8824586957492961 5 131 2 116 3 146
13600 3.2702545939503418 1.7982450467966822 9.0607677819533752 33 41 54 0.65283718289489556 8 8699 10 2981
751 -6.6455739902588542 -0.4330668416914446 1.8948926742319281 217 159 135 0.054347093562600909 1 199 2 120
13604 8.6071723240922289 2.5660759594136504 13.089246725116196 255 254 246 0.55605196744498653 7 3225 9 4984 10 4744
7172 -3.298819038582276 1.2873698276746834 5.6865042687275968 170 140 104 0.95008212592811669 5 2205 4 1484
752 0.66592676383910776 -0.62379375493112588 11.000811004593867 16 15 21 1.885689127555997 2 121 5 221 3 214 4 226 6 129
13605 1.0088689888064426 2.0064490782424911 10.411143216458267 35 25 27 1.2440726596236062 7 8416 9 4993 10 4764 11 4733
7173 -3.2560562659142382 1.2982650628467576 5.7758377031536234 192 162 124 0.49675965787692739 3 2911 4 1486
753 -0.58333704646938689 -0.78759186680217974 9.6354244700142253 22 21 26 2.5692857661604873 1 140 5 139 2 122 3 153 4 139
754 -1.8183006336711385 -0.9427605435110803 8.2467610173833048 0 2 5 1.5680220899639332 5 142 3 98
7175 -2.0170718891009454 1.3821292826631433 6.5477547710877202 74 64 54 0.75746909324340139 5 2221 8 1428
756 -3.0419881719025508 -1.1412319176665029 6.6871659917533686 19 18 24 0.22529564595390683 1 145 5 145 2 125
13609 7.7179457303019321 2.2521767832155959 12.115235329598125 245 247 242 1.1186211745871413 9 5016 10 3010 11 3017 7 5116 12 2655
7177 -1.8040430287823128 1.4969256301609919 8.1899354281790782 1 5 7 0.278893366285487 3 1592 4 1511
758 -3.8080190721912097 -1.2782958633010433 5.8836559520871257 45 48 52 1.3905228872823969 5 90 3 67 4 64
13611 7.8872487005350136 2.2976232306461193 12.394026197479164 28 27 33 1.3866354004396637 9 5019 10 3391 11 3020 7 8410 12 2657
7179 -0.20356494738138817 1.3900507315158264 9.1995533476344029 44 28 25 0.065192834841195355 4 1527 8 923
759 -4.4484244430600857 -1.1998224862399451 5.0493346984729781 119 136 162 0.92855325330334981 1 189 2 128
13612 -0.10116330963793198 1.6778800879630358 9.1120831475129975 4 5 10 1.248704656055005 7 8441 10 3014
7180 6.1292694255539306 2.2333611073700963 15.191832859514511 24 19 19 1.8912293962828948 3 1950 4 1528 5 1414
760 -3.3258664351123324 1.0614018974532684 5.7680913588052709 79 91 88 0.97982030027990108 5 72 3 84
13613 -0.7898723116490074 1.5897829367834562 8.7143623621760948 81 93 105 0.12844275295209284 7 5149 9 5022
7181 -1.4402289805020387 1.122147343982139 7.7137162422955656 74 69 68 0.59862125808105993 3 1615 4 1530
767 -2.8176775871097139 1.777521898409036 5.8992441342216777 241 242 237 1.0366376060969991 5 246 1 361
13620 1.2201157088656773 1.9492634310696748 11.107572420519418 1 4 11 2.3245032130132826 7 6294 9 5046 10 3028 11 4793
13621 -0.26998259406634706 1.5857289110056225 9.1430658014682962 93 85 83 2.0869950489028373 7 6558 10 4813 9 5048
770 -2.7070294999880913 1.0487647462276988 6.3261902293902752 201 151 124 2.0079239865675418 5 121 3 133 4 57 6 31 2 162
13623 -0.29176717286644738 1.5570000939324782 9.0348640956246804 96 84 81 0.23236935830891525 7 8486 9 5054
7191 0.48830864199881235 1.0249200133321978 9.3519168013181435 0 1 0 1.1940423540595861 3 1952 4 1564 9 1511
771 -2.6942113848419962 0.80332638761091213 6.4391315611918776 189 127 106 1.1766425898806614 1 263 2 166
13624 1.7768748296057686 1.9628982784147972 11.499928327615386 16 33 49 0.31476602770862827 7 5175 9 5063
7192 -1.5759596640043614 0.80842560542205011 7.71418736726483 34 14 11 2.1239581248269981 4 1570 6 914 7 416 3 1643
776 -3.927102791321246 -2.236838403951789 5.7389549841670782 177 134 115 2.6080894078341785 1 182 2 176 5 155 3 162
13629 4.8197365302435538 1.7992540385897104 10.885791875158322 2 2 10 1.2591792518774372 7 5170 9 5080 10 1481 11 2062
777 -1.8209562091945208 -1.9752272790161662 8.3490353040605552 143 110 101 0.91088644908088523 1 188 2 181
13630 2.7074830899942577 1.9604165111549199 12.077722313356686 1 8 23 0.12847944786097582 7 8502 9 5098
7198 -3.3459012023796428 0.21525038870487889 5.9165938678780368 151 135 110 0.18863527137468722 3 2811 4 1630
778 -3.3739471018987102 -1.6393542816343452 6.1127774120083833 171 135 120 1.4914433769629434 5 151 2 182
13631 13.074038093147761 3.2030000818385402 19.791635704305225 115 112 107 1.2898533019726135 8 8811 9 5100
7199 -3.5887048387260814 -2.4905424685132975 6.0833194999873799 187 200 208 1.000559801618814 3 1959 4 1631
780 -3.3495452537393198 -1.2308514679311569 6.3787495608098066 22 23 27 1.8494862213689316 1 191 5 146 2 185 3 160 4 99
13633 -0.18797772734426096 1.4759522628428039 9.1490019538686855 76 50 51 0.06982627315123488 7 5208 9 5106
7201 -3.2511041197012482 0.08385481101494871 6.0621853726128672 141 128 111 0.15962055004405296 3 2790 4 1648
7202 -1.2408219603134094 0.067070952716843366 7.9592048807328171 147 134 117 2.3069046487667775 5 4302 4 1650
783 -2.3701806790765536 -0.91029252880333955 7.4515902577816675 203 231 242 1.8317487488668192 1 194 5 140 2 189
13636 0.99514171310053157 1.6710926277779512 10.456985954324008 38 43 84 1.1258013788100654 7 8517 9 5114 10 4865 11 3076 12 2701
7204 -3.6188854318825743 0.02654349499008549 5.6562244089656124 94 82 65 0.053881323784279747 3 2779 4 1655
784 -6.6605391540602827 -0.53740735989834643 1.8908934075293702 112 89 75 0.39359877328369786 1 423 2 190
13637 -0.22421401253032944 1.4683046081437965 9.2031208685620065 78 80 75 1.8217198629779643 7 8529 9 5115 10 3062
7205 -3.324056310935334 -0.013755776827994226 5.9931279070229504 248 226 187 0.096924083777406494 3 2766 4 1666
785 -1.1217530814533292 -0.72395359041856 8.9207106658322566 138 160 192 2.4243573388346618 1 195 5 220 2 191
13638 2.7267883570537892 1.9088927064286867 12.03930255913693 31 42 60 1.857464394310985 8 6489 9 5121
786 -2.386846470741157 -0.60275730145007511 7.2493254301076346 124 144 176 0.47924715303553367 1 196 2 192
13639 0.41131832676902852 1.5914733680108026 10.041168360097114 3 0 4 1.23935719565393 7 8524 9 5122 10 4876 11 3081
787 -4.0552573425445138 -1.1840405736751689 5.2635815204842169 172 138 126 0.69588609074227481 5 148 2 193 3 102
13640 0.38762596604803867 1.5837521663440766 9.9998950206117261 1 0 4 0.31691519701724108 7 8525 9 5123
7208 -3.3006838373336942 -0.042667975954121536 6.0831081528829598 100 85 66 0.036089757198667333 3 2755 4 1675
789 1.9090409387661245 -0.42104781526699869 12.365956825109253 18 18 23 1.1792913918027679 2 195 5 138 3 211 4 225 6 196
13642 1.0058833677167451 1.6510296730012533 10.475554009274465 6 14 24 1.4975335344702529 7 8522 9 5128 10 4877 11 3086 12 2704
7210 -3.5557097190478069 -0.077943813620854729 5.7529805994237027 176 152 117 0.30210610184752823 3 2745 4 1689
13643 0.9115188316972116 1.6428136942207086 10.420345286188075 32 23 28 1.2591556490927032 7 6157 9 5129 10 4878 12 3104 11 4846
7211 -1.2092291656667029 -0.20963259969994788 8.5940050909620176 211 213 208 0.44979045632024689 3 1753 4 1700 6 970
791 -5.1154269304006847 -0.28374734455868222 3.6674098361706351 170 126 106 1.8730704631231343 5 196 2 197
13644 2.1612360647091045 1.8511118233842307 11.781584721874886 28 15 19 1.0618847873917132 7 5207 9 5131 11 3085 12 2703
7212 -3.4431417036262419 -0.17555069955078417 5.95002122264275 152 140 118 0.050061002464438974 3 2719 4 1704
793 -6.6311133626892707 -0.26688871068744008 1.8352166486569532 202 152 133 0.68965868332960212 1 275 2 200
13646 1.5409294101091875 1.7442182260080805 11.246124677621253 86 98 101 0.46312323931213467 7 5218 9 5139 10 3077
7214 -2.1777759781591697 -0.25679823899862375 7.4687739833918405 210 177 134 0.57985312023295088 3 2709 4 1714 6 1627 8 1009
795 -3.1313159619315676 -0.012533501690550177 6.2156186189305256 238 218 194 0.048093609418577092 1 274 2 205
13648 1.4463283179907145 1.709421430316193 11.189682419359468 3 7 17 1.177878725688227 8 8835 9 5153 10 4893 12 2715
7216 -3.5827650524052568 -0.37112466542495198 5.8119186134511054 128 112 87 0.0025692133296111386 3 2676 4 1739
7217 -3.2459392083704715 -0.41918149060983417 6.2270776405790382 192 163 131 0.16692892699716805 3 1791 4 1740
797 -6.6846411195350459 -0.93144536922850718 1.933792774327616 193 149 145 1.0981271021694887 1 435 2 209
13650 6.3406824443654184 1.4866674282757946 10.037286915921255 222 232 241 1.355579207875846 7 8519 9 5165 10 4889 11 4866
7218 -3.0984832559351632 -2.1832877914912583 6.6968297312083687 163 122 98 1.0357310927928913 3 1896 4 1744
824 -4.7244906033405085 -0.57820266988119906 4.5202676358671967 251 236 203 0.78041554004778635 1 281 2 272
13677 0.45880568564998864 0.95524562790684586 9.3894758720607765 18 26 39 0.99586302272649818 7 8738 9 5340 10 3166 11 2257
7245 -0.86362408721655137 1.1924140160936096 1.8609350465647947 210 207 192 0.12862458449267244 3 5049 4 1903
825 -1.3466403651188907 -0.94215071444980403 8.7383278016906054 40 39 44 1.0053595711425054 5 216 8 147 3 155
13678 0.0030922581047904199 0.96680701302424465 9.6087282568803456 61 64 73 1.9097528927156624 7 8741 9 5342 10 5061
7246 -1.0604158355774558 1.2065156536840322 1.8984095776370484 204 201 186 0.88093794760873279 3 8090 4 1906
7248 -0.94127541298415818 1.2121245091482526 1.9367008893408029 233 229 217 1.3140906489122159 3 8115 4 1915
828 -3.9107200110122564 -1.2997256644654354 5.4204570977749409 38 36 37 1.6848464986633021 5 210 2 280 3 226 4 147
13681 0.50059060804761435 0.95857784894344777 9.7532545525337024 38 54 70 1.3013483892767639 7 5392 9 5346 10 2234
7249 -0.76066901779298013 1.2054534892448148 1.9362108229970476 191 180 162 0.33968481770206932 3 8124 4 1917
846 -0.91197952629551571 1.8662753153465448 6.8389819265512868 30 33 40 1.9785832562599412 5 370 4 181 6 167 3 274 2 343
7267 1.2725184327443193 1.2928931770317831 3.0287838279651043 187 179 168 0.54750272129260624 3 2387 4 2120
853 -3.5569425919303619 0.56080223388106476 5.7739564520397915 153 170 180 0.85499284703638812 1 584 2 362
7274 -3.3170699888183224 1.3883166907852906 4.3456426016926892 144 150 148 1.2133322006729941 3 2442 4 2232
856 -3.6894950054002913 0.47125713645016565 5.4982740817188445 31 32 36 1.5321304433311129 1 403 5 601 2 367 3 466
13709 0.95864014416066479 0.16890601340466865 10.809335900293979 196 144 130 0.79051617076843927 7 8904 9 5474 12 2908
7277 2.8095259842895044 1.6187903578092397 5.3581845481608825 210 201 186 0.916129127467463 3 3237 4 2247
857 -0.45786221946174166 0.56909182884446274 9.2323509183337666 35 17 13 1.5135144441806885 1 409 8 427
13710 -0.24358570511342351 0.22889168739201268 7.9032946106352666 124 137 145 0.20182611620086485 8 9179 9 5480
858 -6.5530057280199738 -0.025100590765731741 1.8614362238404443 247 255 255 1.4336732349926433 1 317 2 372
13711 -0.19662430023202657 0.21313146353565016 7.9658770561972521 137 150 158 0.084958933232673672 7 8905 9 5484
859 -0.048497428145609103 0.47541689173188911 10.078414662477647 0 0 0 1.0836954038249407 1 314 5 1480
13712 0.57249603759362255 0.17891828921892886 8.8477683027511222 156 146 129 1.5790109211565488 8 9213 9 5486 10 2171
7280 3.4532963493790167 1.8816926690433493 6.9984892180063794 219 207 191 0.68326165210185497 3 4255 6 1388 4 2278
860 -3.0861664453186397 0.17019795286799605 6.2273498724913789 109 85 67 0.22081661533919134 1 413 2 374
7281 -3.9088536105470291 1.3256602407160629 4.8551034681544598 157 111 88 0.20640886309558493 3 2494 4 2285
861 -3.4050362818987234 0.15065544960836807 6.009237850658665 251 236 209 1.9801880028689398 5 278 2 375
13714 -0.10563075926198061 0.14389447773239611 9.768413553170868 144 128 103 0.1463601488906538 7 5530 9 5495
862 -2.0948482218384781 0.19009156396383664 7.4441944508149192 174 158 143 2.3704209761803718 1 610 2 377 3 343 4 301 6 206 8 131
13715 2.9074593670643627 -0.04293565897376482 13.372464098953355 121 142 166 1.199080060713223 7 8944 9 5509 10 8478 11 5237
7283 -2.4805329244574468 -0.15324819979517981 7.0593510144219449 180 151 120 0.64242202282584671 3 3945 4 2290 6 2393
863 -6.6919368348812043 -1.1920280301960164 1.9288775529352677 202 157 139 1.6979392586083919 1 444 2 379
13716 0.81409661157587609 0.071419973322429095 10.663082513590474 202 151 129 0.75298891309855143 8 9250 9 5511 11 5249 12 2922 7 8937
7284 -3.0264467840775735 1.6039147328468137 6.0363219375674912 110 92 69 1.7930248692248225 3 3569 4 2291 6 1374
865 -3.5862143144611562 -2.2019210575189141 6.0688768330706662 184 149 138 1.2474079386103918 1 632 2 383
7286 2.2654467579603281 2.1466148543932859 8.3977421157263805 39 44 50 1.2114037494118848 6 2147 9 1040 10 757 7 1383
867 -4.474328495237553 -0.30479784512897884 4.6946044591987688 181 163 143 1.1037114633192124 1 419 5 289 2 390 3 187
13720 0.84194839881452899 -0.0044867854531218821 10.715468039904811 210 162 138 0.98764246548922374 7 8957 8 9282 9 5529
7288 5.2260790550687597 2.0107640727671843 8.0709441821926085 224 216 203 0.99768891506591739 3 2500 4 2301
869 -3.5206423881422739 -0.40145391226836702 5.7023850190967051 255 241 213 0.19101470522677086 1 421 2 392
13722 -0.65990092592548999 0.021815729527727718 9.1350054063736668 238 206 163 0.65983687369713384 6 8887 9 5542
7290 -1.3581184367886241 1.8921355676215172 7.6308364902219479 197 184 178 0.12469026087793518 5 1345 4 2308
873 -0.10536126658310085 -0.76657709215884906 10.127472012468287 23 20 25 1.4394061980543977 3 219 4 137 8 145 7 136 9 81
13726 2.4719979197588269 -0.32176926815990425 13.021563406639316 79 105 132 0.60414187378741147 7 9017 9 5558 10 5274 11 5292
7294 2.0814598777748827 2.0497386334578529 8.7800605334648782 51 55 64 1.6286420535595645 6 2180 8 2200 9 1395 10 900 7 1200
874 -6.5021938914285906 -0.57869584046764011 2.0376535858775058 192 127 95 0.41995574008249525 1 660 2 399
13727 0.00010017966344405213 -0.14223860257494503 10.129281290092379 75 96 115 1.3020504010188565 9 5562 10 5284 11 3328
7295 -3.1575968278429474 1.3795679940694232 5.8393797566929129 212 178 130 0.10524500052847802 3 2664 4 2327
875 -1.619786937218175 -0.88097911016149366 8.1611225902142888 142 110 95 1.7096591580557936 1 655 5 302 3 329 4 140
13728 2.4492496971380064 -0.34580438458450813 12.806725823935649 86 115 145 1.9278615119685212 7 6182 9 5563 11 2153 12 8005
7296 -3.0975597267346231 1.401798256208288 5.9723202289609141 221 188 140 0.13087566659786784 3 2792 4 2328
876 1.8795225428685156 -1.420290621033393 12.325774126240276 168 136 125 2.177281373791458 3 516 4 318 6 289 8 297 9 232 10 174 5 447 11 191 12 170
7297 -3.9571693056206074 1.080874573782773 4.865007041087285 33 21 25 0.51818427695236324 3 3639 4 2333
878 0.71645125940053944 -1.5883361987193099 11.112112673523036 192 161 153 0.48669803763967379 4 231 6 190 3 331 9 126
13731 2.1703794162764618 -0.48602351222143469 12.329125903025764 48 34 31 0.43999099198981412 7 5669 9 5591
7299 -3.0387620269682882 1.2155176975925599 6.1026585151512602 7 12 16 0.61717429721747608 3 3655 4 2343
879 -5.7801265059543114 -0.93658258808881889 3.1020601529187286 166 120 100 1.6793741023246931 5 306 2 406
7300 -3.8270284378060819 0.97187470487170491 4.9183099638010672 157 94 72 0.42534691524629731 5 5606 4 2345
880 -5.0987953561356028 -1.1531672626290477 3.9873452512175507 99 116 134 0.90568920688115262 5 311 2 412
13733 -0.91403229609533831 -0.20322294795425927 9.0552299609679299 32 32 37 0.69357128147662794 7 5663 9 5595
7301 -2.0699163599547776 1.3697966701984987 7.3019884308674374 25 33 36 1.6077630820516675 3 2935 4 2349
881 -6.2884563705466086 -1.205537722063291 2.4971640544213729 190 150 130 0.77454602116508808 1 635 2 416
13734 2.4903961879082406 -0.57166891069708792 12.765957931512551 167 128 111 0.88517478947126638 8 9451 9 5596 10 5308
7302 -4.0168706972622328 0.88423352269778832 4.8780471855355128 32 17 14 0.15110431622108478 3 2930 4 2364
882 -6.7176245664344725 -1.2961545606683094 1.9880171705166223 227 161 137 0.3672422522628741 1 634 2 417
13735 0.83010568919379923 -0.37655161237732654 10.802955165591882 162 138 123 0.47309466380736498 7 9084 9 5597 10 5311
7303 5.581553852723685 2.0624989093351318 12.892108080047734 1 1 3 1.7780217977888133 3 3672 8 3371 4 2372
883 -6.2777880170385609 -2.312492139007658 2.7790966564513879 227 191 177 0.98152606680021481 1 622 2 425
13736 -0.41162115326916193 -0.24484067054531247 9.3741451196885635 197 132 110 0.26566959275634788 7 9082 9 5600
7304 5.4117825117272584 2.2434641234521924 14.072072243227845 46 47 51 0.29845670147405423 3 2957 4 2374
893 -1.6879531616009629 1.9193494291032045 5.9213994472569222 214 211 204 1.5472568769095811 5 365 2 510 1 809
13746 1.3526126967668017 -0.68265391554512167 11.46425173450281 208 172 160 0.68334043645587261 7 6185 9 5626 10 5339
7314 -2.952523510535066 0.82058887865057073 6.318588754087866 15 20 23 0.42125263207302516 3 4313 4 2417
894 -3.6801786934932621 1.5174111047970897 4.9076176713521784 0 0 0 0.25667493559758592 1 746 5 557
13747 1.2565050044925807 -0.73955934997819062 11.381589934500175 192 131 114 1.1612503167317145 7 9168 9 5631 10 5346 11 5384 12 3011
7315 -3.4282243808575568 0.75879925246880142 5.8354886449871772 66 83 91 1.149865105040488 3 3714 4 2419
895 -3.8177033672229426 1.3323999352623419 4.867334409863223 147 112 90 1.9203539061948751 1 829 5 374 2 518 3 277
13748 0.82081519645831447 -0.66846334214341463 10.833229273802209 166 112 98 1.3432449386084444 7 9165 9 5632 11 5385 12 4946
7316 -3.7405391767650302 0.70261707516764926 5.4112834388987894 80 91 87 0.53016007950755395 3 3716 4 2421
899 -2.9801445777081459 1.3736186547026035 6.0585059230978535 221 208 171 2.0781657201395123 5 575 2 524
13752 0.83045849277123152 -0.72302477516917651 10.890385550032336 231 194 178 1.1068707706791276 7 6186 9 5644 10 5350 11 5390 12 4954
7320 -0.97008254002460981 -0.8467562597258097 9.1340617700955047 70 97 124 0.67371133075989376 3 6576 4 2467 6 2368 8 2442
900 -3.0866144958376114 1.224991164779603 5.9610078529971746 186 183 178 1.6049369069125092 1 561 5 581 2 529
13753 -0.24184704253162695 -0.5998283537347745 10.026282299301194 62 86 114 0.85036549304088516 7 3816 9 5645 10 2208
7321 -3.3687251332723451 -1.3832119576760351 6.1747762121832492 178 144 127 0.72996011809892059 3 4153 4 2468
901 -1.8170111689657149 1.3772276759375073 7.5920081916718933 13 12 10 0.14990007932959309 1 848 2 530
13754 0.81789223251128562 -0.72146928049464121 10.854233664224671 207 168 147 0.79526856458650663 7 5730 9 5648 10 5352 11 3391 12 3019
7322 -4.1072691740058813 -0.98597663598066332 5.1797549710095856 185 122 104 1.4865761219854376 3 1971 4 2472
902 -6.1000864143671532 -1.5527714579877849 3.1564311057449377 72 96 132 1.9812127572899598 1 633 2 533
7323 -3.3387270203536912 -1.1676036415737143 6.3227726675270892 46 57 61 2.3537350342847487 3 6707 4 2473
903 -3.9566894214336146 0.75725947906320401 4.8517946137030563 208 171 158 0.91832511028297648 5 394 2 538 3 292
13756 -0.45568610185143876 -0.58976059032247596 9.4095442057079506 221 173 160 0.047243292361286479 7 9190 9 5662
7324 -3.6690179596482739 -0.92229948481542212 5.8764344089643092 162 179 187 1.3584258709015571 2 6278 4 2480
905 -2.3726332117548519 0.86793386801252193 6.9935657935835023 189 191 186 0.50915182836755324 1 861 2 545
13758 -0.46139659271520966 -0.62257358729392664 9.4188495116830122 206 153 139 0.35350746501361985 7 6272 9 5671
7326 -3.658428311343807 -0.73882278445780381 5.848343914878261 39 53 66 2.4652594121051239 2 10431 4 2491
906 -1.8676228613904178 0.86577452858448356 7.6228634272761422 25 25 25 0.35431542845098729 1 580 2 548
13759 -0.3978738307617391 -0.64056107779188598 9.5044141462641711 174 124 100 0.77563968544111905 8 9532 9 5672
7327 -1.2768629702917966 -0.84943715047608481 8.7002898797791133 62 69 79 1.3101919140964327 3 4084 4 2507 6 1647
909 -1.7577308548144257 0.67038720632718229 7.7845862774701793 55 47 44 0.34576382605138029 1 881 2 553
13762 1.7555936969506711 -1.0763145435660986 12.061380643145402 165 140 124 0.65961965811957501 7 9245 9 5677
7330 -0.67937510515122024 -0.76372342608149879 9.6059521804812391 0 1 0 2.9895832357495058 3 6550 4 2523 6 2341 8 5919
910 -0.43735459733249066 0.77524775194996653 9.1515928387983294 43 26 19 1.2406384247756637 5 407 2 554 3 465 4 426 6 398 7 420 9 422
13763 1.0066836835493118 -0.92843318331066338 11.077197161589543 186 128 108 0.10340549245163144 7 5755 9 5679
7331 -3.6552053421247104 -0.41055676413794506 5.7096480519249431 176 150 115 0.41970589632497357 3 4037 4 2529
911 -6.6454785135695591 0.073362797071225463 1.7408314091980399 47 28 24 0.58263342713460498 1 982 2 555
13764 -0.30143171341416353 -0.72633890632193432 9.70263920998228 86 108 134 0.10807598524095272 7 9234 10 5400
912 -4.9958110062386041 0.23577198012318726 3.7275917032680197 49 50 54 0.62838494807934941 1 593 2 556
13765 2.1509628133996541 -1.244055757242482 12.5394411231674 232 177 156 0.91363143427600679 7 9276 9 5690 10 5891 11 5444 12 5007
7333 2.7968980164622663 -0.82384887451196309 13.149972906561421 158 124 108 0.89782297880065409 3 2670 4 2538 6 1635 8 1638 9 999
914 -1.9842235546592293 0.5156118808545429 7.4957266109904692 146 122 101 1.5154606321998507 2 558 1 597 4 431 6 274 8 197 3 470
13767 -0.39084208940913129 -0.77862436445920613 9.6119045851618079 204 152 138 0.14439765191023857 7 9261 10 5420
7335 2.2888594818172283 -0.68305063716964876 12.528347215213588 148 118 107 0.98267549868672366 6 2366 7 1617 10 872 4 2546 5 3916
916 -3.2432726022700478 0.22263748331018396 5.9920691874520173 207 191 167 0.38670850286117953 1 606 2 562
13769 0.67896335618048798 -1.0546695752255892 10.756130435365089 205 145 119 0.95447064677557603 9 5710 10 5434 12 2691 11 3132
7337 -3.5755739337982777 -0.254346277619168 5.7793870364727233 96 84 72 0.070930904452808141 3 2696 4 2556
917 -6.4748352345860551 0.081107954274650174 1.952410142828974 248 254 255 0.18258058571625402 1 876 2 565
13770 1.5422642722471529 -1.2484732110724974 11.820199843286169 209 167 150 0.42495603181655028 7 9312 9 5711 10 5431 12 2780
7338 -3.8845480755698807 -0.21607375510213095 5.2213611586128321 208 179 139 0.65014413052675191 3 3978 4 2561
918 -0.56386403500868476 0.17944840897755709 9.4962246829706363 184 171 152 1.7084443979113892 1 616 2 566
13771 0.42887524222010892 -1.0171442671331186 10.537951044630498 210 163 147 0.48435186791927948 7 9301 9 5713 10 5437
7339 1.6966576640071869 -0.4353251934235785 12.167724141010247 110 136 164 1.8722001917190383 3 10059 4 2572
922 1.2191669683665436 -0.60691588450929079 11.622259963526904 33 27 27 1.7755598489888105 1 661 2 574 5 438
13775 1.3554631524786476 -1.3537582816744096 11.610988023539036 220 157 139 1.048512008932653 7 9368 9 5749 10 5467 11 5517 12 2445
7343 -4.0440321698938329 -0.73003047647091035 5.1774989844395325 161 110 91 0.44106530125448162 3 4290 4 2592
923 -5.6889463541026029 -0.50131427401053441 3.0086537387848176 206 154 140 1.4461778761187341 5 440 2 575
13776 2.9036775512325481 -2.619053173636797 18.352554020737095 187 159 147 0.39009589222144658 9 5751 10 5899 7 9396
924 2.524204753470201 -1.2475731840756741 13.625187097632367 151 119 108 1.7363745093537659 1 650 2 579
13777 -0.93417559377001291 -0.8987406222569293 9.2541435076189238 4 11 17 0.49585902345232935 7 9341 9 5754
7345 -3.8955413310422733 -0.0080916012034144853 5.1908450587308943 154 97 78 0.20546405585099337 3 3908 4 2608
927 -5.1456672128260497 -2.0554662414148095 4.0482385426676402 255 254 245 0.92098896719136891 1 630 2 592
13780 2.4628885897106212 -2.6675649963740597 17.817008378192053 179 150 139 0.42826220486134609 7 5841 9 5771 10 5475
7348 0.020200698016604606 -0.027125444905755875 10.002794380466963 221 222 217 1.0792505356914002 3 2761 4 2611 6 1576 8 1583
929 -5.6099031220455187 -1.4761135731727963 3.4610142546775147 204 166 157 0.98061411987120328 5 661 2 597
13782 0.20113578630644513 -1.2762781631191917 10.357236300372348 180 127 108 0.50401915746500359 8 9741 9 5791 10 5519 11 5568
7350 1.1374385362107109 0.081247667627232484 11.274318047203048 24 28 29 1.2799302485427499 3 3895 4 2625 6 2436 7 2501 8 2510 9 1559 10 1410 11 1441 12 1325
930 -5.107987887128683 -1.2995952567464999 3.993255175368505 73 96 130 1.4348886859068162 1 636 2 602
13783 -0.56435902138420357 -1.0791924251660172 9.4345874150295508 225 190 168 0.10977352595900383 7 9410 9 5792
931 -6.5157646823070499 -1.0187841588375415 2.1753017030049508 181 147 128 1.2429841351531392 1 933 2 603
13784 -0.5318704740494935 -1.0976809745116793 9.4626207670137763 142 124 108 0.018689666489857967 7 6346 9 5798
7352 1.3936669261805608 0.1131055060558647 11.616031936133217 118 140 163 0.68390008639516497 5 6024 4 2630 6 2441 7 1562 8 2488
932 -3.9858063729441966 -1.4113515225987505 5.408081833581142 198 172 159 0.41808844580954485 5 653 2 604 3 527 4 331
13785 1.1205339060346209 -1.556030929255402 11.466619496697918 193 150 132 0.76308449064844319 8 9780 9 5804 10 5523
7353 1.1486987350561975 0.13808140795588328 11.240692523379792 204 201 202 0.051925897023602979 5 3777 4 2633
933 -3.8480778489373599 -1.4074637007524411 5.5990556755008445 196 174 163 1.1817140186048898 1 667 5 652 2 605 3 526 4 330
13786 0.056726544207375329 -1.2982435913174317 10.194097076342157 158 115 99 1.2142385548715753 8 9767 9 5814 10 5541
7354 1.2682177338470502 0.15189158451066909 11.123125637184035 180 184 169 0.8614207137022647 5 3770 4 2635
934 -3.5725496122596541 -1.3667813144474412 5.927243877942951 210 190 180 1.0532278526293877 1 543 5 651 2 607 3 371 4 482
13787 0.41863236212018073 -1.4579102601855609 10.655184598237385 188 131 112 0.056744768424348432 7 9464 9 5822
7355 -0.2820299998272523 0.13198037722928002 9.4397087900638148 167 120 100 1.4762416724039076 3 3881 4 2637 6 952 8 678
935 -2.9966525565111661 -1.2995299859178246 6.6190406645213127 188 163 154 1.3064595180589453 1 640 5 647 2 612 3 523 4 327
13788 -0.76446040496536716 -1.2275206355429193 9.3160028085886513 174 121 97 0.057485334877708141 7 9483 9 5835
7356 -4.0604172302888868 0.088501170819687711 5.0021693763894506 22 9 3 0.71352433284251404 3 2794 4 2638
936 -2.4306954848256654 -1.2034485010600307 7.1964420270173663 167 147 139 0.35148229738287606 1 642 2 616
13789 0.52929009593309662 -1.616573181515585 10.863852945298635 206 146 119 0.46376800900884624 8 9850 9 5836
937 -5.9160047807510416 -2.0468410619786184 3.1650424947169609 144 101 86 0.40734758155155204 1 908 2 617
13790 0.3522578297444226 -1.551066414407307 10.594752898527769 198 171 152 1.084481659478375 8 9844 9 5837 10 5570 11 2472 12 2117
7358 -3.9864092448737094 0.096827796981474354 5.0632773158555811 148 89 71 0.17992053415020609 3 2795 4 2640
940 -6.1610606853417735 -0.04676575963647378 2.3718172316230173 177 113 84 0.23965184994858366 1 960 2 638
13793 -0.87684308875282868 -1.2630172943099849 9.2583047176156299 205 162 147 0.74793110492959891 7 9504 9 5850
7361 -2.2586634408125401 0.17930390656468112 7.2445893679685893 104 87 69 0.13467459946903759 3 3841 4 2651
953 -5.9394274440124537 1.0163168365816013 2.3712573196896316 165 102 80 0.27460869364658619 1 810 5 548 2 751
13806 -0.65068467497739446 -1.8092165429565041 9.6015988561424148 154 108 92 0.63504159559615436 7 9637 9 5938
7374 -2.2822846158057097 0.40746687959214589 7.1680311740530991 180 162 138 0.8801626726238222 3 6040 4 2716 6 2504
954 -1.9709503421852033 1.7833111861952833 5.7402150928898177 208 205 198 0.80391135824153626 5 1298 2 753
13807 -0.80662380753308394 -1.8596808539102432 9.4986198259621233 196 140 117 1.1494331795009742 7 6001 9 5942
7375 -2.3050326818984699 0.42644361486526777 7.0898959833367918 199 175 149 0.76815521378064078 3 3780 4 2721 6 2509
955 -4.977613194242422 1.232300811159424 3.4677046352346999 168 129 121 1.0052104720761643 2 754 1 1224
7376 -1.9814190848072084 0.55382072934116144 7.4628314611988751 214 190 156 1.3343824155756896 3 2847 4 2727 6 1702 8 1528
956 -5.9114023421520869 0.90159739248869286 2.4005787656874156 224 185 141 1.6824850837276308 1 1237 2 755
13809 4.3714579147342425 1.822584976932762 6.0465523139630539 228 222 208 1.2888806572926224 7 7715 9 5992
7377 -3.3133841065450516 0.47101293994083943 5.9140549343211468 155 141 117 0.34542309717953734 3 2000 4 2728
957 -2.4484375050916425 0.16969056722277864 7.008776975000524 210 193 177 1.031759182969102 1 894 2 759 3 713 4 654 6 407
13810 1.3795646470099612 1.9991692318428498 7.4594583456225578 239 240 232 0.80346991701542481 7 8111 9 6009 10 4407
7378 -2.1118311187551249 0.60721957953689354 7.3153774091522772 138 120 95 0.32590350416374592 5 3636 4 2732 6 1511
959 -5.9124621126619612 0.84070791974571801 2.4071996592492755 216 182 142 0.95038410226101 1 822 2 764
13812 2.0841029695884532 1.488050071399631 11.8012152595256 23 9 12 0.81879945008078592 7 8648 9 6036 11 4959 12 4447
962 -5.829988550111584 0.89605807714320385 2.6890862187801554 210 177 136 1.8233178739886426 1 547 5 562 2 767
13815 1.7768844753151616 -0.73526987654877929 11.964877158038821 230 178 162 0.76785863133822074 7 6289 9 6049 10 5336 11 3373 12 3002
964 -4.2183399380990041 1.0679474990260553 4.6693302252520015 167 168 165 0.87704814648671869 5 577 2 774 3 667
13817 -0.84363943827048427 -0.59195525386956105 9.2855353452909046 62 84 106 0.16263082280054281 7 9201 9 6052
965 -3.2805477675816168 1.2133232000695104 5.7844173662264264 179 181 176 0.49166355918035692 1 842 5 579 2 776
13818 -0.41103676064467881 -0.7002434917955026 9.514829786307244 216 150 127 0.54492750844285243 7 9231 9 6054
7386 -4.3745495816593536 -2.1986579512238831 5.3286495876468125 99 67 79 2.364758058966598 3 10898 4 2844
966 -1.4073335739345272 1.411785324302087 7.0558409544194767 15 16 21 0.8324756751309873 1 562 2 777
13819 1.1866911978833059 -1.224210492030867 11.440375986751897 210 149 128 0.38097843937883985 7 9326 9 6055 10 5441
7387 -4.1890764901441679 -2.2457264354140904 5.5033368581377262 165 128 109 0.91671563522047395 3 6988 4 2853
967 -3.7751524803393548 1.0147582556761734 4.9870678800156769 77 72 68 0.86889423573781999 5 582 2 778 3 442
13820 -0.89775490924349788 -0.96039690616648721 9.0861265576214958 195 151 131 0.6893972982338844 8 9683 9 6058
7388 -1.7838650416466051 1.8206559412646888 7.3894611838563469 243 221 184 1.3428203780378327 4 2873 6 2150 8 1408 5 3447
968 -6.3686387658797434 0.45197122005018575 1.9813483493352062 245 181 154 0.62251611824491326 1 1313 2 780
13821 -0.12296875934724208 -1.5431243637622156 10.071329394888725 208 153 133 1.1454639180781039 8 9877 9 6061 10 5590
969 -6.4921422518569347 0.43005461359057112 1.8409300282913956 192 124 103 0.12514250185143555 1 1312 2 781
13822 -0.34641175433006088 -1.6836704385095016 9.9287831159936122 176 130 114 1.4132218443217135 7 9580 10 5615
7390 -0.92756991772781494 1.2252682427188457 2.0131114846540008 226 219 202 0.58153854437376507 3 8146 4 2896
970 -3.9609996044660494 0.85189147694906997 4.8292090634779949 190 167 153 1.6975337613979422 5 499 2 782 3 447
13823 -0.60901028845480498 -1.6562837513386848 9.5833978608557224 184 138 114 0.43167761991366949 7 9595 9 6066
973 -3.7379335916406484 0.64674548277857924 5.3553192374221119 162 164 158 2.1695532072492449 1 863 2 792
7394 -1.5347880173702435 1.2935989606653651 2.2696930345845798 215 209 197 1.1705341731367296 3 5146 4 2934
974 -4.9014871205506658 0.47789517785240021 4.0190931487408985 165 167 164 2.2696588933164037 1 864 2 793 3 1033
7395 -3.734170888366029 -2.245712843697639 5.9584003985683687 176 114 93 1.4858438427106004 5 10858 4 3013
977 -6.6470475484014857 0.14890866095386371 1.7432461732842282 48 29 25 0.54867525411425411 1 866 2 797
978 -3.2756405765860657 0.52285363256475981 5.9920610277596689 56 57 59 1.3995470062372966 1 874 5 892 2 798 3 1041 4 649
13831 5.0901914433785693 2.0202299408879272 7.8055528721109262 222 212 200 0.28055343623533946 7 8109 9 6134
7399 0.70316377558006571 1.2165023119995424 2.5172920831063461 185 175 163 1.6541956071756636 3 8528 4 3099
979 -4.915131378304558 0.33983236131684569 4.1349106185005429 106 130 154 0.82054507279223077 1 871 2 799
13832 -0.84144520997071637 -0.20211147743906638 9.2341318839859294 55 72 91 0.46737173121996667 7 9074 9 6139
980 -3.8179827005149907 0.41126766972860368 5.0895972990677203 60 61 65 1.1326785764027236 5 893 2 800 3 703
13833 3.0138663550730418 -0.57792723572878157 13.635558366348054 195 145 128 0.62397755583542747 7 9083 10 8633
7401 -4.0431311793551412 -1.8701058920455578 5.4641255768016883 160 122 102 0.48251954074749193 3 6900 4 3158
981 -6.6238779842634337 0.09691219440363473 1.7656491440968942 213 154 135 1.2287719802249226 1 1360 2 801
7402 0.99671373512764727 1.2634350445818876 2.8866789370300916 216 206 194 0.50581247166231802 3 8661 4 3159
7403 -0.15332281095472849 1.4345261986249591 3.3924857485579918 220 203 183 0.069893485025553578 3 5394 4 3168
985 -5.9876999965957394 -2.1843067831875689 3.1168227329339855 196 146 129 0.030201541744939248 1 1552 2 807
13838 23.455774132497183 4.1150081487420573 30.809206423261717 132 133 137 0.83561154605063992 6 8508 9 6214
7406 -3.3696165992257852 -2.1111831111928874 6.3246827803575085 181 128 110 0.75882298673590409 3 6898 4 3209
986 -4.5128567163836699 0.10607956277141159 4.4901483755542175 172 158 145 1.3869618869451179 1 887 5 905 2 809 3 712
13839 23.974050570845709 4.2510720972290095 31.648225489078627 84 85 89 1.4171598534758578 6 8505 9 6216
7407 1.2728812714514823 1.3126100952561361 3.2447104310188259 222 214 203 0.42503613984150268 3 5443 4 3215
987 -4.902923477471659 0.046093693016203668 4.0705908825688937 184 168 152 0.72223892650873633 1 890 2 810
988 1.7606546757726371 0.35705504652511266 10.085330507200688 34 37 46 1.0383653109586193 2 811 4 439
7409 -0.77110884722455386 1.7237670000060503 4.4851845631914191 167 154 135 1.7078380406876175 3 3500 4 3224
993 -0.64586088691688881 -0.011988004952518738 9.2765707524690111 252 248 219 1.9284090487088457 1 900 5 618 2 818 3 722
7414 -2.4562835400727177 1.8494350405899855 5.0450431379540266 168 153 132 0.63006748600893514 3 3620 4 3249
994 -6.2402775930480052 -0.22120562308815356 2.2976217230817513 238 171 151 0.29407182387585373 1 1405 2 819
7415 -2.4950779732671999 1.8411831082623966 5.1724300069732729 177 178 170 0.33594750990128214 3 5493 6 1294
995 -6.5911690673597105 -0.31017030972173276 1.9411544349069585 194 129 101 0.22700087263556989 1 901 2 822
7416 0.59442289388766101 1.5241762483810648 4.4035735460760579 199 190 173 0.28708148605622963 3 8588 6 7649
996 3.5778370618703899 -0.2269496025905661 14.193846420486286 31 23 23 1.5372134972200131 1 904 7 148 11 153 9 183
7417 1.6945800819063737 1.4890155128062375 4.3349454616725058 231 219 205 0.25894274316193522 3 3992 4 3294
998 -3.2272650622037338 -0.51487499195820774 6.2722334422315855 208 205 195 0.38253805618883718 1 959 2 827
7419 -1.0661746564924686 2.2223963307879431 6.6945125952631761 170 157 138 1.1532153655482127 3 5522 4 3303
999 -2.8750800037796234 -0.78376593543460915 6.5683909188561662 215 182 167 1.80888500436781 1 919 5 943 2 832 3 1102 4 512
7420 0.31827244652531267 1.3168139370830814 3.917532356163715 83 76 64 0.94357331198335137 3 8912 4 3315
1000 -4.5885652062623983 -0.71027252581851019 4.7634536708927753 182 183 178 1.0296788602970799 1 916 2 833
1001 -4.84130268560736 -0.73837923441576914 4.3645117188067779 200 203 196 0.29494277836451077 5 638 2 835
7422 -3.7517751867477549 1.5704113051611581 4.8955902971922258 201 207 204 0.41483944551997531 5 5379 4 3333
1004 -3.9374456630074328 -1.145462600124918 5.4307714269601357 105 130 162 1.9195484287384186 5 646 2 846 3 524
13857 3.9491125501797715 1.6093574542554352 4.701465042741984 226 220 208 1.5596561188499005 7 7146 9 6733
1005 -2.5868207349125858 -1.3123012719873302 7.1339402976807778 137 103 93 1.4505514684717413 5 958 2 847
7426 3.3175701127057189 1.6863857050146209 5.8913848893148062 226 217 202 1.3494583994880389 3 5623 4 3373
1007 -3.3556721370809974 -1.3359166724927471 6.1623985416516609 160 147 139 0.62077175850196553 1 930 5 649 2 850
7428 -2.6636015261324717 1.735581142080612 6.1653118042030668 196 126 100 1.477831186569377 5 5440 4 3387 1 5323
1008 -4.0033268670571251 -1.2859242759895151 5.3939970253707905 157 129 118 1.3145668033508464 1 931 5 650 2 851 3 525
7429 -2.6060351214581625 1.7521030614464201 6.2863036156080527 174 124 100 0.94294213587253672 4 3389 6 2107 5 5444
1009 -6.0669830282825998 -1.0165722783120712 2.6978884082429548 47 29 27 0.13140862661922642 5 970 2 852
7430 -3.9418079319486514 1.368440215902111 4.8367655888894445 164 107 87 0.28432068624025597 3 5685 4 3393
1010 -6.140676264404032 -1.0738438819394809 2.6624296786043691 184 164 148 0.12577918349672496 1 934 2 854
7431 -3.8255393745535318 1.3843468089250348 4.9372486795228472 149 94 71 0.45783275696367154 3 9114 4 3395
1011 -3.7830125021282077 -1.4581207346080414 5.6602988125399678 163 134 122 1.1750587880129111 1 938 5 654 2 857
13864 3.2287806536934092 1.6794223437808704 5.0134003100809341 240 232 219 0.79302682356145449 7 7272 9 6896
1012 -3.6173196835250039 -1.5220321580297322 5.8650792974100332 209 185 174 0.62422222002040118 1 1502 5 975 2 858
13865 2.6789075707153196 1.6203779607258013 4.9546860899749285 228 220 207 0.39063954751418084 7 7364 9 6935
7433 -3.439397913436411 1.4597981514146796 5.5049141144375193 140 112 75 0.099346033742244794 3 5713 4 3423
1013 -3.9473276174274528 -1.4916602003242387 5.4799234864158359 161 132 118 0.25816062720320587 5 656 2 859
13866 4.097259595156606 1.6984065323261679 5.240329863899337 215 211 202 1.7867492959942581 7 7369 9 7051
7434 -3.4686185869424961 1.4513678223972526 5.5208948037353682 205 170 130 0.062385109699938879 3 5719 4 3426
1014 -4.5489611060052333 -1.5013276174290024 4.7508934164012375 196 171 158 2.3202372289955879 5 472 2 860 3 349
13867 4.0312656641326035 1.740361762187713 5.4767996110660917 227 223 212 1.769251209389104 7 4496 9 7166
7435 -1.7481596939025663 1.9028451331527385 7.3772821780860651 4 3 3 1.6909064884955076 4 3428 6 3116 8 5049 5 8995
1015 -5.6589908785064074 -1.3375846060024461 3.3289795972566187 227 193 181 0.56623074792792616 1 979 2 861
13868 3.8016844011894015 1.7415304458508341 5.4933357324612677 232 224 211 0.34296747104267888 7 7480 9 7171
7436 -3.8009093850068121 1.3362579128906629 5.1166944183917691 226 193 142 0.57775079302295174 3 5730 4 3433
1016 -3.5650783409483671 -1.7337146150457408 5.9613988267321609 252 255 248 0.78883270838435904 1 942 5 983 2 862 3 757 4 486
13869 3.7744770827400926 1.73391534166443 5.5478636218792001 228 219 206 1.3221839826332547 7 4559 9 7216
7437 -3.6156096272762372 1.3617338718328407 5.3264754470362963 255 227 175 0.21003206474526576 3 5748 4 3439
1020 -4.0360354362000299 -2.1506914673152839 5.5112642842509079 173 127 112 0.79860107972228145 1 977 2 874
13873 4.2514155033874026 1.7655409213083335 5.7935374967645918 215 208 198 2.2503790363417089 7 6120 9 7327 10 6773
